-1.839557 2.918252 -5.012827
-5.133284 0.4341798 -6.050071
-1.557582 2.863443 -5.215304
-0.1539898 3.086679 -5.336973
1.341104 3.175073 6.557383
-5.377276 3.412828 4.442822
-5.522888 3.984834 4.663774
-3.604594 1.448902 -3.767074
5.413955 3.155356 -2.974487
2.164329 4.457062 -2.945748
5.46052 0.5481243 0.2509505
1.821997 3.085161 -5.342581
0.6496961 0.4989038 -5.207522
-5.782724 3.858485 0.3754687
5.413954 3.211636 5.51205
-2.748003 2.809509 -6.360921
-6.395744 5.532096 -0.3800091
1.39606 2.92053 -5.004408
1.523046 3.749066 4.572671
-3.8399 2.593655 -6.561449
-3.619848 2.500789 -6.561449
5.413955 1.907329 -0.9938334
3.371376 1.618839 6.792057
5.621914 5.308741 -0.5359907
5.413955 2.457411 6.4538
-6.395744 5.86919 0.3034496
-5.158163 1.374292 4.442822
5.413955 4.137376 3.719274
3.282874 3.581479 5.910031
5.413955 2.059821 2.875964
3.774142 4.415874 3.745522
0.6098155 1.656773 -3.730789
1.699763 1.805271 4.442821
4.112169 3.297281 7.016941
-3.204787 5.151002 -1.467438
5.413955 1.762717 2.613071
-1.077916 3.358117 -4.334202
0.2936091 2.568878 -6.303516
5.413955 1.943777 3.671519
-5.771034 0.4989038 -5.293539
5.578483 3.346392 -3.730789
0.8826669 0.4989024 4.588478
5.710445 4.975869 2.552557
-5.782724 4.769471 0.1893259
1.365591 2.475526 4.340651
2.540685 2.756254 -6.55766
-5.14175 0.7905737 -6.015237
-0.1589186 0.4989038 -5.467975
5.413955 2.612324 1.568252
0.3285141 5.533158 1.365357
1.278316 3.10941 -5.253
5.413562 4.704195 3.131309
-2.747426 3.671941 5.13024
3.973496 4.535103 3.491527
1.27935 2.981844 7.15693
2.508923 3.839055 4.97433
5.413955 0.999209 6.664773
-5.94046 5.846327 0.698207
-5.651538 1.786232 -5.743948
0.2532015 3.599268 4.442822
5.413955 1.741333 2.488119
-5.782724 3.636657 -0.4275579
-0.8677872 4.7626 3.006887
5.413956 0.2182948 -2.426229
-2.23727 2.888289 -6.069885
1.560594 1.429399 4.394044
-5.725466 2.985081 -4.765937
-2.121568 0.09638444 4.442821
-1.421019 2.232402 -3.755499
-3.575942 5.809615 -0.06438196
-3.997041 3.02013 -4.636456
2.458526 2.095803 5.197474
2.891409 5.871426 0.06729423
0.9756866 5.570037 -3.071308
6.026976 4.377901 -2.939818
1.293526 5.296743 -2.955036
-2.278409 2.593706 -6.670847
5.413955 0.6888927 6.139277
2.18558 2.201326 -3.504953
-5.782723 1.13536 -0.8255791
-5.782724 1.073254 -3.570223
5.725783 2.963689 7.227643
-0.3382113 3.33041 -3.730789
5.413955 2.214281 3.126827
4.004717 4.936987 -1.923356
-5.47184 2.275393 -5.874164
-5.818615 4.502282 2.958759
5.45737 2.617214 -6.124949
2.335922 2.70165 5.028618
-4.011017 2.836128 -6.262584
3.089243 5.053653 -1.674822
5.04574 3.255615 7.179225
4.818189 3.164824 7.401484
-5.782724 5.070516 0.02246708
-1.514529 5.185946 -1.392994
-6.391676 5.090849 1.712219
5.413955 0.08511762 4.584251
-0.2104957 3.908854 -4.113606
5.413955 3.917579 1.60077
-5.216001 5.521224 1.390779
5.679085 2.86558 -6.153778
-5.65643 3.731047 -4.34672
2.152134 3.747984 4.574966
-5.756609 2.666882 0.1290992
2.597168 0.5479759 5.013799
3.867801 2.820136 6.753282
2.848574 3.759775 5.215594
-3.125682 5.667094 1.080031
4.373427 3.455678 -3.97378
-0.5114418 2.560385 -6.561449
5.413956 5.217897 -0.4427834
0.3736284 3.144943 -4.175362
5.413955 3.110155 -0.03524446
0.4650146 3.465816 4.442822
-5.445163 1.727408 4.615551
1.431391 2.727267 -5.718379
-2.119904 4.534561 -2.780652
1.285243 3.724948 -4.343809
-2.970809 5.616548 1.18771
-5.035548 2.596051 -6.653374
4.11332 0.4989037 -4.856947
2.335922 1.994197 6.340147
0.4713374 0.1734516 4.906495
-3.151307 4.872149 2.773515
-4.66167 2.615563 -6.603268
-5.782723 3.467703 0.5767108
-5.782723 3.274654 0.4215126
5.413955 2.31096 2.972813
3.835487 2.795889 -6.411238
-0.1814249 3.129762 -5.177813
2.814582 1.261098 6.744514
4.530413 3.333411 -3.730789
-0.9963665 2.58951 -6.227294
-0.8515726 2.936719 -5.890969
-5.782723 2.638969 -2.899033
2.178088 3.135145 7.617168
0.3783983 1.978341 4.361845
0.7596223 2.998477 -4.716449
1.082734 0.4989021 6.287672
-3.433716 4.388764 -3.091244
-4.826537 4.076525 4.468443
4.854728 3.252893 7.189825
-2.178354 3.194247 -4.939588
0.2429341 5.040974 2.413862
-5.511572 2.48572 -0.2221316
0.9350026 3.170004 7.542602
-1.924311 3.590961 -4.196033
5.413955 3.49478 -3.13004
-3.121899 2.894519 4.442821
-5.782723 2.707196 2.052733
3.877205 5.116557 2.252847
-2.154955 5.975701 0.2853301
-3.04672 4.34962 -3.174633
0.9915774 0.5589546 4.442821
1.366696 1.142507 4.442821
-1.538123 3.861113 4.927337
6.026976 4.92266 -1.575066
2.104643 5.769273 0.8623577
2.582422 3.728936 5.335706
5.413955 3.018621 -0.6954713
2.275731 0.674292 -3.730789
1.450193 0.4989038 -5.107275
-1.381475 5.145387 -1.4794
4.424676 4.496077 3.574666
0.1573617 0.1335243 4.64425
-2.098663 0.4989039 -6.074777
0.2912245 5.405894 -0.9244365
1.778995 3.754843 5.234804
-1.890306 1.226217 4.217109
-5.782724 1.339079 3.717226
2.194099 0.498902 6.518992
-4.643741 2.880906 -5.150792
-5.782722 1.675095 -0.9125859
5.413955 1.856181 3.455273
-5.782724 0.1801607 -1.688637
1.40465 3.106152 -3.730789
-4.499999 3.283724 -4.60903
5.594641 5.318712 -0.5147505
1.462339 0.342119 -6.270807
2.458526 1.934685 5.064945
3.199423 2.497899 -3.730789
3.497856 2.89748 -6.035931
-4.728574 5.887432 0.1013929
-1.29791 4.046896 4.531561
0.8307137 3.47366 6.32997
-6.351472 3.524329 5.055841
-4.186897 5.695348 -0.3078077
-5.782723 3.234309 -3.193074
5.413955 3.301192 5.564424
3.395333 5.493115 -0.7386279
0.7713435 3.013613 -5.606901
5.744758 3.560242 4.973226
0.5438718 3.801703 -4.34672
1.288299 4.180238 4.247501
-6.244894 2.801535 -5.444011
0.2773769 1.106752 4.493906
-3.824891 3.854776 4.940836
-5.782724 3.679398 0.6757184
-6.338446 2.842546 -5.292505
-4.052154 0.6534613 4.442821
-4.674915 3.753644 5.106236
-2.639672 0.4989037 -4.827011
0.4565822 0.9859089 -3.730789
-6.102529 4.159359 -2.985781
-6.31139 3.935675 -3.461412
1.169832 0.01731991 6.744514
-3.90816 2.741621 -3.730788
-4.707147 3.208115 -3.941986
3.235123 3.422387 -4.096767
5.413956 1.566691 -2.491562
-5.782724 3.455299 -1.554456
5.676379 2.702745 -6.758499
5.467586 3.849799 4.951441
-5.105747 5.340495 -1.063758
0.11023 3.027178 -4.61042
-3.632084 0.4989038 -5.808313
-3.887677 3.122734 -5.203775
5.426446 0.3505926 2.351079
-5.782723 2.231409 -1.830712
-2.44249 2.138925 -3.730789
1.642413 3.384373 5.589139
4.43986 3.632879 5.709836
4.437671 2.969088 -4.825021
0.5848812 5.035912 2.424646
5.442657 3.180862 -4.989034
-5.782724 4.159809 2.092719
0.9712868 4.751087 -2.832948
-5.782724 2.38823 2.455846
1.145669 2.739152 6.744514
2.298858 2.969497 7.205021
-3.936141 1.145363 -3.730789
4.697612 3.235166 7.258871
1.293526 5.263668 -2.777892
3.983719 4.086042 4.44817
0.2331862 5.322056 -1.10304
1.269606 1.444787 4.340651
5.413955 0.7078514 2.569245
-0.9299973 4.160192 -3.578176
-2.932913 5.886747 0.09993368
4.599504 2.59922 6.744514
-3.990688 4.893913 2.727148
-5.460782 0.4989036 -4.322143
5.245506 3.518173 -3.730789
4.104631 3.388135 6.663077
5.413957 0.09775107 -3.646837
-1.499504 4.330898 3.926549
-5.864363 3.384634 -3.730789
-1.472602 2.11856 -3.730789
-1.110903 3.753646 5.195457
-0.8551097 5.194947 2.085852
1.062884 2.863102 -5.216564
-1.97004 2.905127 -5.061313
-2.269943 0.05252052 -6.061543
0.1389358 4.011739 -3.894426
-4.689528 1.224447 4.442822
2.810618 2.155773 6.776119
-5.52576 4.536632 3.488271
-5.055391 0.4989037 -4.57285
0.5142481 3.087699 -4.386835
6.026976 4.309267 -2.91848
5.779814 3.36884 -4.294585
-4.585706 3.786169 4.442822
-5.910235 3.096849 -5.299403
5.413955 0.5192441 5.516979
-5.782724 3.731678 1.395422
5.413955 3.005039 2.364239
4.129061 3.610307 5.797752
-1.570514 3.593386 -3.734495
-6.072388 3.549247 5.055841
0.9712868 5.237712 -2.817748
1.215285 0.1498674 6.744514
-5.454014 2.207673 4.636185
-5.188573 5.446556 -0.8378129
-5.161541 1.266102 -6.022339
-4.459818 4.548689 3.462584
0.2186636 -0.01496529 5.159572
4.748552 3.604542 5.820206
-3.077793 3.127878 -5.184772
1.816775 0.4989022 5.279095
-1.149112 0.4989037 -4.580953
-6.344671 5.307802 1.250241
5.413955 1.763118 6.71174
5.413955 1.562984 -0.08505678
2.335922 0.7766752 6.026496
-5.787704 0.5238231 4.00954
-4.056131 5.460429 -0.8082597
-5.61262 3.032748 -4.589842
4.577662 0.4989037 -4.662131
5.413955 3.199305 -2.049098
-5.782724 3.800769 -1.83834
5.413955 4.186618 3.520615
2.335922 2.732773 5.725835
-5.519816 0.9212582 4.568504
3.947172 3.53646 -4.343809
-2.192163 3.637424 5.055842
1.427767 0.5994091 6.694822
-5.348261 0.4989037 -4.555907
-5.775666 2.438798 1.026547
5.573822 2.919428 -5.954847
0.9593919 3.106942 6.66969
-4.662839 5.763374 0.8749221
-2.526881 1.719183 4.361846
-6.171568 5.608174 0.6102993
-3.944973 2.964813 -4.840814
-5.782724 1.499043 3.597551
4.52577 2.702745 -6.74447
-5.879318 3.190246 -4.954366
-5.782724 4.491705 -1.156805
-2.011828 4.681478 3.179703
3.717078 0.4989037 -4.727948
-5.782724 0.03793579 -3.475715
5.413955 4.479295 -0.1328324
3.980691 0.4989037 -4.602417
-5.782724 3.043779 2.711898
3.989721 2.702745 -6.685743
-5.782724 3.07115 3.782187
5.413955 3.862779 0.5393206
5.022586 5.08485 2.320393
1.751547 2.63844 -6.046534
1.510735 3.894607 4.855985
-5.38745 5.533218 1.365228
-6.267329 4.255661 3.491961
-0.5099666 2.290168 -3.659315
5.449056 3.542164 6.063155
-2.626371 0.2969933 -6.061543
-2.804522 5.524795 -0.6711394
5.413955 0.6272292 1.061908
-6.064034 4.976134 0.4133702
-1.656658 3.659173 -3.730788
3.712129 0.4989039 -5.827904
-5.364594 4.338225 -3.19891
5.485951 5.557711 -0.005604893
3.938049 0.7505826 6.744514
-5.377552 3.795491 -3.762159
6.026976 5.263452 -0.9015764
1.600915 2.970776 -5.765156
5.413955 4.600844 -1.804308
-5.782724 0.5087516 1.601666
-0.01524305 0.4989037 -4.765234
-2.269089 3.692983 4.691641
1.18486 3.278495 -4.628346
5.44432 0.3282212 1.054435
-5.782724 2.458192 -2.898241
2.925804 0.1547887 -6.061543
0.8144659 3.291837 7.038145
-5.027929 3.799103 5.055842
-2.685067 4.431198 -3.000848
2.618343 0.9802011 -3.730789
0.1011006 3.084334 -5.882075
2.813462 1.806379 6.744514
-5.43374 4.747738 3.038547
2.335922 1.190948 6.292199
-0.3940969 3.858861 4.932136
4.612022 3.2071 -4.8921
4.259079 5.653106 1.109829
-5.782724 0.02510327 -2.813708
5.413955 0.4537559 0.7403314
-2.710856 3.690988 5.055842
3.420268 4.103452 4.411081
5.044568 5.392475 -0.9530225
2.437195 5.16993 -1.427114
1.437694 2.917246 -5.016541
5.353622 0.7537725 -3.730789
4.744116 3.85734 -4.223347
5.413956 1.338021 -2.00619
3.306187 2.027867 6.744514
2.335922 3.092582 6.57567
2.936804 5.915882 0.162
-3.938566 5.740277 0.9241272
-1.411077 3.557627 -3.730788
1.145319 1.944931 6.634952
4.562963 3.394371 6.638792
2.384505 1.472702 5.652637
4.971058 3.383896 6.679588
3.27517 2.600997 -6.629323
1.999191 3.800773 -3.730788
-5.782724 1.592899 2.123189
-5.228696 3.164761 -4.102146
-4.26704 4.735069 -2.353506
2.638302 0.4989039 -5.94635
-2.280215 1.4898 -3.730789
2.762833 3.485148 6.285225
-5.828285 2.224558 -0.4459604
-0.6282635 3.753646 5.19193
-2.692058 3.983794 -3.953959
-5.801462 1.409606 -5.895394
-4.91134 2.745514 -3.730789
-2.269961 0.4205405 4.508744
5.379854 1.241668 6.744514
1.364281 1.388329 6.666715
-3.281068 3.372227 -3.730788
-1.939388 3.478065 -3.891077
-5.932606 3.442647 -4.021921
1.144097 2.848452 -3.730789
5.308427 2.606421 -6.561449
4.837251 5.441963 1.559631
-4.166278 1.226217 4.165915
-5.782724 2.042892 2.521138
0.8545966 3.675976 5.54198
-3.719838 3.487147 -3.857527
-2.046356 3.485195 -3.730789
0.2186636 -0.008848006 5.134429
1.713851 2.337508 4.447838
-3.769058 1.602157 -3.746857
-4.938613 3.47093 -3.917436
-4.435522 4.523299 -2.804642
-2.207248 4.916228 2.679611
-5.642146 2.928804 -5.92021
-1.000441 5.543464 1.343402
0.09071755 4.957693 2.591278
-2.265095 1.329726 4.361846
4.38258 2.859583 -6.175932
-0.2757337 5.223235 -1.313556
1.560594 1.44426 4.316637
1.44811 0.4989037 -4.960611
1.27919 2.921481 6.744514
-4.488497 3.077589 -3.730789
4.399518 0.2148039 6.744514
5.107252 1.572058 6.863771
-0.2569421 2.290168 -3.729418
-0.6887326 0.4989038 -5.087953
-5.927108 5.602794 0.0902646
1.958526 3.759504 5.216653
-0.6744906 2.792574 -3.730788
4.452622 5.759113 -0.1719681
-4.524323 3.215919 -3.913154
-3.349776 2.666882 4.335142
-5.847925 0.4760563 3.079082
-3.566831 3.96426 4.707603
-5.525747 3.822347 5.009922
-4.728768 0.8828214 4.442821
4.74068 3.190919 -4.005513
3.355779 3.59862 -4.179784
2.325119 3.257827 -3.758332
1.030843 3.339168 5.765207
-6.395744 5.771128 0.5352158
-1.007466 3.322764 -4.464802
1.371112 1.477915 6.74339
-0.8677805 0.1575744 -6.839718
-5.782724 3.89598 3.879817
5.435487 3.285224 -0.1450469
5.413955 4.34138 -1.361732
-5.782723 2.928303 -2.281988
-4.593228 4.559715 3.439096
-2.772102 5.946802 0.2278697
-5.984711 4.407625 3.169428
5.931892 4.220304 3.566735
4.987926 5.324722 1.809391
-5.766493 1.553196 4.442821
5.19233 3.14533 -4.17393
-2.680495 3.999086 -3.921383
2.395588 0.4989036 -4.246656
-4.731638 0.6858003 -6.022883
5.543634 5.937139 0.2072835
-3.807249 0.8463359 -3.73079
-0.3106668 2.152317 4.493906
-0.7287206 1.915277 4.442822
-1.947906 4.839288 2.843517
5.413956 5.396802 0.8517329
0.6335298 0.4989038 -4.81235
-5.015385 3.548573 -3.734495
5.46636 0.4502616 -1.469841
2.513828 0.8052858 6.744514
-3.823218 3.884125 -4.166284
-5.782724 0.323059 2.982309
-1.047111 5.07695 2.337223
1.358824 0.5597691 6.701362
-0.1353807 5.52399 1.384887
-5.859543 5.216356 2.040245
-5.782724 2.965111 3.369007
2.458526 0.7585578 5.010378
-3.177707 2.732357 4.442822
5.413955 3.176384 2.773231
1.334229 3.746001 4.579174
5.550149 5.61376 1.193649
5.413954 2.493007 1.869155
0.9186935 3.467229 -3.931108
-6.095254 4.976134 0.3549059
-1.091091 4.754065 -2.31304
1.37621 0.598466 6.713593
3.359924 2.673118 -3.730789
-3.018648 3.085968 4.442822
4.341051 1.481957 -3.730789
5.413955 4.09329 -0.7503526
-5.782724 0.7742625 2.820681
-5.29486 4.228969 -3.431659
-6.267268 5.212867 -1.335646
3.326088 1.462978 6.7956
5.350978 3.474684 -3.903568
0.8409455 2.948408 -5.847786
1.260593 5.216807 -1.32725
5.034808 5.348635 1.75845
-1.069118 5.473807 1.491791
-1.840502 3.150703 -5.100448
2.044682 3.771143 5.171319
5.531804 3.170007 7.616621
-4.21814 3.054884 -5.454433
5.413955 1.348348 0.7148763
-4.281333 3.655843 5.152441
-1.000425 1.604841 -3.654645
1.103838 5.887225 0.1009505
5.413955 1.754299 -0.1815627
1.210214 3.366549 5.658559
1.465069 5.04669 -1.689654
0.393584 5.445168 -0.8407699
2.572481 4.02353 -3.869309
-4.367663 2.584786 -6.244748
3.547195 5.020067 2.458401
2.366149 1.288846 4.892526
5.413956 0.6572599 -0.986818
5.413955 1.448923 5.402241
-3.000077 3.909646 4.823948
4.507671 3.565119 5.973751
0.4523442 2.75609 -5.611898
-5.782724 3.920831 3.110798
0.357845 1.462854 4.361845
-4.159629 3.802335 5.058753
3.398472 2.885628 -5.133348
1.540963 0.4989024 4.637124
5.378204 0.1370838 6.744514
0.7140036 5.672259 1.069027
-5.299189 3.094952 -4.360042
3.458472 5.301564 1.858723
0.6067489 3.46531 5.95471
5.413956 0.1061383 1.376906
5.973231 4.139602 4.334071
-2.915998 2.052759 -3.730789
-2.815271 4.586922 -2.669105
-5.215865 5.743327 -0.2055969
1.591795 0.7156826 4.44282
2.290362 2.212384 4.491858
4.397316 2.618861 -3.730789
5.43899 0.3894201 0.7300127
1.255531 0.4989023 5.373473
-4.731808 0.5813184 -6.022884
0.6067489 3.420556 6.522186
-1.116398 5.407497 1.633053
5.235028 2.102463 -6.072493
-2.585469 3.759364 -3.730788
-0.7133327 4.132972 -3.636164
5.15049 2.943123 -4.920943
5.073105 1.538433 6.90011
-5.782724 0.474918 -2.583599
4.457057 6.433338 -0.8831169
1.100667 2.967188 4.442821
-6.214625 3.044762 -5.491825
-5.152066 1.019746 -3.730789
2.458526 0.8551731 5.522282
0.08317018 5.488594 -0.74826
2.234358 0.4989036 -3.954087
0.291062 0.2851786 -6.371902
1.213387 3.522712 -4.340809
2.453861 1.514244 6.744514
-2.959871 4.196004 -3.501885
3.1029 3.336335 -4.41467
5.674134 4.335381 3.916999
-4.616851 3.508628 -3.778169
5.413955 3.391082 -2.221894
4.784236 3.707314 5.419921
5.413955 2.118141 6.437388
-5.193779 3.969803 4.695796
6.026976 3.980401 -3.374194
-5.907688 4.610905 3.330045
-2.121714 0.09506384 4.442821
2.996452 0.4989036 -3.803634
5.413955 4.34839 0.1541595
4.237693 1.817472 -3.730789
-5.782723 2.630426 2.028872
0.2287567 0.1734515 6.221338
2.162983 3.398121 6.624185
-5.020653 2.690856 4.442822
4.543258 3.60673 5.811681
2.504706 4.314285 3.961939
2.225408 5.845543 0.6998778
5.413955 3.765651 -1.38639
-1.479191 4.233123 -3.422811
5.413955 1.292338 5.247774
-6.121358 5.696386 0.2944742
5.454217 0.5806219 0.5968665
-4.959258 2.2324 4.479831
1.87412 3.790036 -4.34672
-2.259112 2.593338 -6.673584
0.2172358 0.1734515 5.551597
-5.723701 0.7917791 -4.926997
5.413955 4.324609 3.177238
-4.543665 5.345586 -1.052911
4.412712 1.540716 -3.730789
-4.240682 3.953449 4.730633
5.413955 3.211187 2.553827
4.169353 1.226216 6.784701
0.4475487 0.1734515 6.064908
5.02221 4.279462 -3.324093
-1.608848 1.740688 4.340652
-5.782723 3.033631 -3.178117
-3.856301 4.186774 -3.521548
-0.3909851 3.332628 -4.428363
1.460754 3.776309 4.514881
-4.615218 3.475058 -3.902186
0.4582486 0.4989036 -4.028231
-2.082425 3.720078 -4.343809
-0.01343548 3.722744 4.628509
-5.119801 3.441643 -4.025631
-5.401224 2.720417 -5.743686
5.166319 5.931813 0.5160946
1.7502 5.492904 1.451111
1.234689 3.729217 5.334615
-0.6543536 3.54266 -3.730789
2.335922 2.25676 6.556559
-6.395744 3.936559 4.43823
1.916884 2.760021 -5.597375
5.826447 3.012948 -5.609355
-5.782723 2.716747 0.9236413
0.3666033 1.016531 -3.730789
2.922146 2.994762 -5.676541
1.971442 2.829705 -6.286311
5.413955 0.5955075 2.503289
-5.782728 1.828967 -5.837642
4.435598 4.694824 -2.439239
0.4633413 0.5766508 -3.730789
5.413955 2.45818 3.266815
-5.560357 5.729482 -0.2350924
-2.125947 3.549038 4.442822
3.56557 2.88182 -5.147417
2.318368 0.9902625 5.691122
5.1759 0.4989038 -4.991313
0.9712868 5.288855 -3.052555
-0.8459311 0.3896655 -6.371902
-6.171867 4.643335 3.260961
5.546245 4.50636 2.958358
-5.782724 0.07702203 -3.829618
3.941766 4.965329 2.575012
-3.538139 4.529618 3.503212
-4.031339 5.978589 0.2955833
3.653602 0.4989038 -5.550805
4.846374 3.551113 -4.280562
5.05294 1.512361 6.744514
-0.1617138 5.147651 -1.474577
-2.862803 3.994938 -3.930218
5.442306 0.3282214 -0.05417809
5.413955 0.6031032 2.407772
-5.817251 4.435865 3.109276
2.175647 3.343398 -4.388577
4.603072 5.380873 -0.9973432
4.361594 4.446622 -2.967988
4.039001 4.408537 -3.049121
-1.851971 5.257233 -1.241132
0.4537587 2.538805 -6.414616
3.194845 3.050031 7.381159
4.199065 4.690816 3.15981
-1.911875 0.4823436 4.508744
1.305886 3.23143 4.442821
2.284837 2.256373 5.75583
-2.694786 1.226217 4.420384
5.413955 1.400385 1.410926
3.582438 2.685716 -6.791525
2.493655 5.494411 -0.7358659
-5.697507 2.613917 -6.605171
-5.670216 3.415649 -4.121659
-4.470766 3.575787 5.055841
-6.395744 5.22122 1.502001
5.413955 1.420485 4.107804
-1.539063 2.982946 -4.773825
-2.71035 0.2887494 4.442821
-0.03904882 2.666882 4.429388
5.392368 3.283067 -4.611458
-0.8437797 4.607106 3.338138
5.567588 5.679499 0.2538418
5.938309 4.257144 -3.371636
4.239577 3.162905 -3.730789
3.811554 3.121653 -4.261402
-6.055418 3.844821 -3.656047
-3.812458 2.51333 -6.508728
4.340208 3.952722 4.732182
-0.01702356 2.560846 -6.333189
-5.782723 1.940309 -0.5149249
-0.7536153 4.214135 4.175289
5.413955 2.406027 3.826981
-1.058166 0.4341797 -6.378078
-6.07301 5.583789 0.3544229
-1.151671 5.34227 1.772006
1.278814 6.006504 0.3550527
3.182622 1.385381 6.744514
-4.735736 2.780879 -5.520321
5.413955 4.000105 2.758326
-2.702489 1.292725 4.468394
-4.57752 2.494379 4.244561
-5.782723 1.331096 -1.047517
3.396629 3.073974 6.798099
2.343538 3.412944 -4.131654
-5.816103 4.83719 -2.135956
-5.233543 0.4989038 -5.608826
5.417652 3.545046 4.976935
-4.609153 0.8199421 -6.022883
5.413956 0.3052962 -5.375191
5.188629 5.803988 0.788403
2.088516 0.4989036 -4.034388
-4.876703 2.936206 -5.892864
-5.782723 0.9675729 -1.821034
1.19048 5.072133 -3.189008
1.062163 3.947367 4.74359
5.413955 1.893421 3.343181
1.258068 3.421239 6.534141
3.617301 3.470061 6.343987
-2.958663 0.4989039 -6.061656
5.413954 2.137144 5.633382
1.386984 2.339539 -3.704628
-3.824284 3.508032 -3.801269
-1.021099 1.458245 4.442821
1.877175 3.159601 7.401849
-5.958129 5.968242 0.4384904
-5.536197 4.059803 4.504067
-2.130901 3.156564 -5.078798
-2.328481 4.45355 3.66526
-2.372643 2.665469 -5.946679
2.1394 3.466766 5.268229
5.17585 1.499343 -6.189255
-0.6940384 5.936102 0.205074
1.490059 2.920066 -5.006123
2.411594 1.345395 5.67345
-2.99076 4.434474 -2.993867
-1.916396 3.59844 4.892196
1.532264 3.248894 7.205402
-2.987302 4.420544 3.735574
0.5177051 0.170573 4.88701
-5.782724 3.60292 -0.600045
-3.663426 2.608374 -6.747867
-5.782724 2.631103 2.765605
-4.552207 5.824251 0.7452355
1.381478 3.854451 -4.2295
-5.54851 2.615262 1.026547
4.8179 3.539084 6.075152
0.04158497 3.66685 4.747077
-3.778385 2.542525 -6.561449
5.413956 5.097031 -0.2767995
0.973583 3.333423 6.876173
-4.030458 3.451498 -3.989224
5.443 5.482228 0.8698387
2.535146 4.66163 3.221986
-2.694275 2.940451 -5.877184
1.43851 2.511612 -6.515075
-4.718668 3.589622 4.910903
4.381392 1.826711 6.7956
-5.782724 1.129597 4.276828
4.994731 2.584916 -6.244264
-6.009163 3.974802 -3.379344
-5.811277 2.095441 -3.51047
0.4627256 4.653528 -2.527215
5.413956 0.939067 -2.34811
-5.782724 4.826526 -0.5085729
3.397682 1.438926 6.646642
6.026976 5.841218 0.110881
-6.355193 5.682992 -0.3341292
4.053717 2.533042 -6.435905
-6.164069 5.438807 0.4232949
-5.782724 2.071957 1.816393
5.413955 4.406507 -2.296335
-4.030785 3.291247 4.442822
-4.629701 3.474469 -3.730788
-2.967813 5.047249 -1.688463
2.190776 5.829511 -0.02200043
2.639821 3.758687 -3.730788
-3.328843 1.465315 4.402881
5.413955 3.572669 4.418839
3.781903 3.14901 7.619358
5.413955 1.848998 5.515425
-3.983434 3.671785 4.442822
5.46052 0.1600473 0.906405
-0.1936831 2.823843 -6.30797
-2.444508 5.830014 -0.02092593
-5.782723 1.123733 1.759815
-6.255965 3.71751 5.319176
-0.4188299 4.190095 4.226503
0.6148732 1.663222 -3.730789
1.989864 2.911977 4.442822
-4.354473 2.944548 -5.862049
-5.064349 2.803146 -6.384429
1.560594 2.406248 4.248082
-5.782724 4.144205 -0.3015256
-5.683153 0.4989036 -3.852317
0.7945535 5.655454 -0.3927962
2.284837 0.8515823 5.699205
-0.2732375 4.014889 -3.887719
5.413955 2.293663 -3.424805
-5.106918 0.4989038 -5.059485
5.62231 2.698029 -6.564803
3.833915 4.707491 -2.412255
3.336577 3.076323 -5.375231
0.8764369 4.001831 4.627564
-5.543631 1.417215 1.026547
-2.957075 5.431022 1.582938
0.8836066 4.676034 -2.661449
5.956899 5.597353 0.6331884
-2.993226 2.635604 -6.561449
-3.573898 4.010365 -3.897353
0.6067489 3.116739 7.044207
1.001224 4.59525 -3.290328
-5.782723 1.592263 -2.086982
-5.811276 2.129016 -0.6794659
-3.612119 4.930801 2.648566
4.4967 3.504741 6.208914
-4.578028 3.544889 5.005794
0.6146908 0.4989036 -3.743983
1.33081 3.13504 4.442821
2.616188 4.302717 -3.274552
0.4086931 0.1734516 5.141702
3.356679 4.170032 -3.557213
2.768753 3.649567 5.64484
-5.45152 3.493503 -3.834043
-1.587824 0.4989036 -4.045141
5.541312 3.488638 -3.852017
-1.746063 4.997868 -1.793661
-5.811276 2.134846 3.817986
-1.036168 5.77856 0.8425739
-2.533008 2.50751 -6.561449
-1.076528 3.579446 4.932488
-3.945679 4.969398 -1.854312
1.341104 1.068871 6.660984
-5.828285 2.228184 -3.335579
-5.782724 0.3908215 -2.163742
-5.782723 0.9458822 -3.24517
2.382561 3.526113 -4.343809
-2.516675 2.820138 4.459501
2.922476 3.812728 -4.318382
2.644367 0.4989038 -5.258573
2.458526 1.535877 5.196746
-2.287511 0.8220162 -6.00411
-6.267902 3.024212 -5.567746
1.258233 3.967524 -3.988619
-0.9301564 2.290168 -3.605541
1.747746 3.423775 -4.09164
5.664721 3.4359 6.47704
-4.292397 3.139758 -4.194517
-6.135126 3.695947 -4.343809
-0.5617344 1.417149 4.442822
-6.085118 3.529986 5.037409
5.125032 2.526155 6.823106
1.577706 0.4989023 4.897394
5.413955 3.679908 -3.729678
5.44251 2.154387 2.461059
0.663849 0.7559971 6.707788
-2.438028 1.2161 4.442821
5.413955 1.354515 4.75385
-2.317585 4.027992 -3.859803
5.413956 2.193733 -3.351863
0.4644598 2.726719 -5.720404
0.8167464 0.4205715 4.697602
-4.37551 5.390958 -0.9562542
2.612369 0.07377736 6.744514
-5.486625 1.443392 -6.081683
1.025609 0.4989023 5.283816
-2.475946 4.003577 -3.911814
-1.716698 5.211083 -1.339444
2.104554 0.4989023 4.932922
4.615709 1.550378 6.744514
1.398706 1.634622 4.34065
5.758 5.307607 -0.5384063
1.230208 3.371961 5.637482
3.625315 2.924275 -5.93694
-2.148477 4.062909 -3.785419
0.004850745 0.4989037 -4.424778
-4.525726 5.916373 0.5489868
-5.398893 2.702743 -6.661713
-4.483351 3.606439 -4.343809
4.013335 2.702744 -6.775633
3.627119 3.72559 -3.910443
0.9827729 4.078195 4.464886
0.6951847 5.411968 -0.9114955
1.24504 1.153853 4.493906
-3.309011 3.290915 -4.582466
1.813347 4.090827 4.437973
4.460175 3.882439 4.881908
-6.395745 4.80722 -2.141118
-3.213582 5.575818 -0.5624458
-5.782724 3.578796 2.259372
4.512171 0.4989039 -5.658119
5.466361 0.634003 -0.4047477
2.677298 2.993893 -5.679753
-6.403255 2.968291 -5.610546
5.422073 0.5238228 6.141391
-2.525583 0.4611616 4.442821
-4.697787 1.878399 -3.730789
2.273831 1.132849 6.724472
0.2538282 3.047044 4.442822
5.466361 2.204714 -0.4170558
-3.072448 3.081889 -4.408299
-5.526858 3.067186 -4.46262
-5.782728 2.415132 -6.027003
-1.480698 3.390382 -4.215003
0.1000961 0.8425446 4.442821
-0.6490948 4.161623 -3.575128
5.190684 2.06963 -6.236792
0.4583446 4.800255 2.92667
-0.5315151 3.018119 -3.730789
-3.585191 4.937416 2.634473
2.974698 4.451747 3.669102
4.685055 3.722979 -3.915981
5.212584 0.690676 -6.241391
-5.313227 1.679845 4.442821
1.361359 2.566761 -3.730789
-0.2223415 3.804468 -4.335981
5.413955 4.58864 -1.93028
-5.088099 1.695948 -3.730789
-5.47184 1.352545 -5.994856
-5.782724 0.1071943 0.7490835
-0.5313873 5.264321 -1.226032
5.586629 4.883376 2.749598
-0.7033246 3.187441 -4.018361
0.556499 5.420703 -0.892888
5.846613 5.559946 -0.5962588
-1.772912 0.3753289 -6.828204
-0.1850517 2.77278 -6.516868
3.035863 4.940253 2.62843
2.458526 1.276802 5.235524
1.275986 1.484864 -3.730789
-1.982917 5.943393 0.2206064
3.182647 1.692192 6.744514
-4.986818 1.090576 4.442821
4.226065 5.497857 -0.7285258
-3.587113 3.645755 4.791827
-5.847925 0.4809428 0.5631524
-1.300556 1.795613 4.439023
-0.7234547 4.700095 -2.428013
-0.9900381 3.694301 -3.976816
-3.916975 5.602747 1.21711
-5.782724 4.518128 1.617702
-5.859376 3.759137 4.551308
-4.685278 3.476414 -3.897175
-5.718096 2.927123 4.442822
-6.222045 2.702742 -6.699405
0.7929611 3.337354 5.772272
2.212321 5.322881 -1.101281
-2.019731 4.054952 -3.80237
5.413955 2.841091 6.421964
5.227195 0.9752694 -6.24331
-5.97047 2.501825 -6.551229
-6.395744 2.777134 -5.666726
-5.525914 5.599713 1.223573
1.081999 4.054676 -3.802958
1.790111 1.333727 -3.730788
0.9744694 5.640875 -0.4238526
-2.423668 2.387941 -3.730789
-0.1361768 3.516106 -3.730788
-6.395745 5.2056 1.983275
3.307663 2.502316 -3.730789
-2.847983 3.451858 -3.730788
5.413955 3.715043 3.872088
5.201774 4.022149 4.584281
-0.3493452 0.4989037 -5.007679
5.413955 1.941999 -2.471301
-3.929719 3.728666 -4.343809
-1.000425 1.343652 -3.645091
4.199843 3.59743 -3.730788
0.7925805 3.688153 5.494553
1.374784 3.308933 5.882966
5.413955 1.873257 4.329381
-5.056031 2.931343 -4.964464
-5.800185 3.64237 -4.343809
-6.395744 5.444638 -0.6316506
-3.84853 1.602158 -3.522088
3.037208 2.702744 -6.672242
-2.47746 3.481625 -3.730788
-0.138981 4.41935 3.738118
-3.226753 2.956081 -4.873071
2.640866 0.891248 -3.730789
0.591619 2.688271 -6.564802
-5.853341 5.860321 0.6683954
4.432825 4.340238 3.906652
-5.782723 1.77036 -0.4313911
5.413955 3.609573 -1.431452
5.413955 4.745808 2.366206
-5.782724 4.192277 0.9764313
-2.445216 1.086663 4.493906
-1.098422 3.025035 -4.618334
-3.926121 3.807082 5.04244
1.683707 5.751994 -0.187135
4.044907 3.703646 5.434209
-4.18108 5.071115 2.349653
5.413955 2.841845 3.842974
-1.966222 3.439912 -4.032024
-5.646927 2.502461 -5.743949
0.9856964 2.222236 -3.772261
-4.552606 0.7104496 -6.004112
-2.77193 3.593265 -4.191145
5.9644 5.883859 0.6182532
5.828506 4.846709 -1.520265
-3.173002 5.162365 -1.443229
0.7554442 0.4580797 5.169968
3.854321 4.924581 2.661817
-2.369551 1.828556 -3.730789
-0.12327 2.874939 4.442821
4.552682 3.010941 -4.670405
5.413955 0.3175199 4.210917
-3.412477 2.840204 -5.301158
4.615218 5.685444 -0.9730792
-2.173317 1.21885 4.493907
-1.33676 3.680624 5.124663
4.577246 2.079147 -3.748199
-6.34369 4.005573 4.024402
2.667221 2.465907 -3.730789
-0.1076249 2.666882 4.454622
5.413954 3.814637 -1.710037
2.309223 2.502553 -3.730788
-5.782724 0.7327778 2.564335
-5.27097 0.576351 4.442821
1.597721 2.930148 -5.915243
2.335922 3.122263 4.540576
5.413955 1.46805 1.957947
5.031935 2.723316 -5.732975
-0.5080141 4.806214 -2.201944
-1.062521 4.949594 -1.896501
1.628104 2.525337 -6.464367
1.860565 3.280265 4.442821
4.608788 1.283186 6.744514
3.532222 1.700978 6.621911
1.890959 0.4989038 -4.745234
0.01703763 5.285517 1.89291
5.486484 2.620843 -6.111538
3.339883 0.4989036 -3.853322
4.500832 5.857793 0.03825209
4.214447 3.406126 -4.156843
-2.996583 0.4989038 -5.394341
2.383723 2.952349 -5.833229
-5.782724 0.1756853 2.046868
4.415779 5.951715 0.2337558
4.489592 1.551468 6.744514
2.246238 4.377822 -3.114554
-3.622244 4.401512 -3.064087
-3.21378 3.079693 -5.362781
2.486294 0.4989037 -4.648585
-5.707305 0.6943927 -4.672664
3.387549 5.591316 1.241461
-5.709022 2.016501 4.442821
-1.870252 3.141631 -4.187596
-2.418046 2.29971 -3.730789
5.413955 1.800716 3.207015
-6.187303 4.170792 4.385685
-5.83771 5.360383 1.733423
-5.655416 3.374259 -4.27457
5.538066 3.724398 5.353384
-5.449241 4.567743 3.421994
-2.218317 0.4726212 -3.730789
-6.187303 4.086309 4.465722
-5.782723 1.185743 0.6169065
-2.727605 0.1617894 -6.061543
-3.172552 2.181885 4.442822
-5.782723 1.667812 -0.3215942
-5.834442 0.4813135 -5.192926
-0.4402483 4.920233 -1.959049
5.413955 1.79384 5.802547
3.843435 4.986522 -1.817831
2.431429 4.819602 2.885453
-3.083404 4.05944 -3.792809
-3.328842 2.38496 4.373361
4.480474 2.944177 7.303639
-2.527587 3.163055 -5.054819
-3.224951 4.621516 -2.595409
-1.936125 0.4914167 4.442821
3.716213 0.4989039 -6.056398
-5.737609 0.7564372 -5.743949
-4.850897 4.371097 -3.128883
5.435487 0.2601072 -0.1303911
-6.348728 3.440846 -4.04096
-0.2801984 2.004308 4.406843
1.675704 5.095353 2.298018
-2.872517 0.7164047 -6.004111
-4.433937 4.988874 2.524851
-2.405157 5.919213 0.5429382
5.202229 3.504189 -3.730788
0.2194402 2.638417 -3.730789
-0.5257591 3.255248 -3.730788
1.317279 4.262783 -3.37809
5.413955 2.990966 -2.488578
4.468624 2.77296 -5.549575
-4.344871 3.564602 4.442822
1.104462 2.666882 4.171543
3.82699 0.4989037 -4.541175
-2.111191 1.560807 4.361846
0.6578355 0.09713522 -7.025058
-2.806772 3.306961 -3.730789
0.3107513 4.306774 4.29083
-5.028033 2.79026 -6.432032
-2.208651 1.474226 -3.730789
-3.05682 0.4989038 -5.232749
-3.261748 4.716795 -2.392436
-5.782724 0.9050368 3.646221
1.546681 0.5539 -3.730789
-0.2680123 2.600688 -6.732687
5.549088 4.059239 -3.199427
-4.289625 2.672417 -6.790387
5.418781 4.64613 -1.940093
-5.894885 4.623866 2.70852
-2.977279 0.4989039 -5.908726
5.413955 1.041198 1.124404
-4.051829 0.4989036 -4.034336
-4.683799 4.961721 2.582696
5.413955 1.975994 -1.35181
5.698945 5.244949 -0.6718876
-4.402842 5.678949 -0.3427418
1.839801 0.4656739 6.79583
1.970085 0.3292339 -6.061543
-5.034322 4.956235 2.594384
-5.762215 2.929091 -4.972784
0.5396771 5.781082 -0.1251676
5.171851 3.313211 6.954898
1.335981 0.4989021 6.044061
2.335922 1.1081 4.632483
-6.129998 5.48345 0.2944741
4.397132 4.020376 -3.876028
3.069503 5.844296 0.7025353
-4.074507 2.66743 -3.781873
-5.135035 2.627584 -3.730789
5.413955 1.130725 6.123183
0.7009361 2.830303 -6.284101
-0.3827586 5.793177 0.8114351
2.18558 2.445772 -3.59726
2.335922 2.445124 5.81833
-2.966669 1.657178 -3.730789
-1.844029 3.127549 -3.730788
-1.831107 0.07867502 -6.84829
-5.059158 5.633577 -0.4393987
-5.692557 4.259777 4.078059
4.920881 2.916895 -5.017836
-2.001526 0.4989036 -4.082333
-1.009427 5.272507 1.920624
-2.941601 0.1290468 4.442821
-5.782728 1.752722 -5.870996
1.341104 1.727994 6.713476
-0.6121917 5.694362 1.021941
-3.026946 1.14842 -3.730789
1.382437 3.406423 6.591851
-0.9599998 2.314923 4.442821
4.302438 2.702745 -6.587016
-3.787004 0.06572642 -6.061543
-5.782724 3.60755 -1.83446
-5.782723 2.264077 -0.5198759
0.9212665 3.613494 5.785338
-1.000425 0.6490605 -3.649388
-5.712998 0.4989036 -4.18162
5.413956 0.05989103 -2.863198
-1.873584 2.595862 -6.707593
0.623322 0.8064198 6.703127
-1.877548 1.371014 -3.730789
3.982194 2.067989 -3.730789
5.413957 0.2644914 -4.284096
-1.827106 2.666882 4.307823
-0.4301605 3.776923 5.058753
5.413956 0.1464147 1.688028
-3.162837 1.864672 -3.780046
-4.947546 0.4989037 -4.486779
-5.544377 2.666882 0.4976487
2.476428 3.890201 4.865373
-2.036379 4.366759 -3.138122
-3.036259 0.4989038 -5.220591
-3.70801 1.602158 -3.585467
-3.736311 3.397738 -3.730789
1.087792 3.360365 5.682647
2.312752 2.839343 -6.250707
4.273918 3.790974 -3.771742
1.133923 3.068783 7.456453
-4.945955 0.4989039 -6.057257
-5.782724 3.897961 -2.978711
5.413955 2.497415 -1.161387
1.940082 3.116858 6.63107
0.5014177 2.666882 4.293256
-1.82403 0.4989036 -3.75068
-5.782728 0.5964365 -5.97271
1.311226 0.2704718 6.744514
-3.392527 3.308525 -4.517409
-0.6908765 0.1575744 -6.724672
-4.067173 0.687598 -3.730789
2.097225 3.090564 -4.376254
-4.199579 1.592132 -3.730789
-1.211298 5.16978 2.139465
-1.82909 5.793823 0.8100582
2.277057 3.703391 5.435203
3.840423 3.212427 7.347434
5.679139 3.224669 7.299755
4.515092 4.393214 3.793795
-4.319652 0.6002701 -6.004112
0.3739892 2.787691 -6.441524
2.568316 3.873669 4.90059
2.304953 0.4989039 -5.690495
-0.8612213 5.673946 1.065433
-2.085484 4.404899 3.768903
-1.228366 0.5767269 -3.73079
-4.208201 2.527999 -3.730789
4.677533 5.833464 -0.01357743
-3.195335 3.531907 5.033333
2.518426 0.4989039 -6.107367
5.776945 3.646772 4.78959
0.6039106 0.04826412 6.744514
-5.782724 0.6257957 -1.263579
-3.944294 3.78492 -4.34672
4.729094 4.591376 -2.659617
-5.782723 0.8485503 -3.144253
-5.782724 3.380756 3.303713
5.413955 0.9363251 4.486737
1.341104 0.6205248 6.596566
-2.10495 3.11463 -5.233715
-5.534202 3.035034 -4.581397
1.505488 0.6149264 -3.730789
2.154424 2.863919 -5.213546
-5.782724 1.343763 3.623759
5.762843 3.416106 6.554136
4.927074 2.912839 6.744514
5.413955 2.912891 5.701868
1.167968 2.985028 -3.730789
4.120178 2.523858 -3.730789
-0.9886583 4.138786 -3.623778
-1.137413 3.648807 5.17005
-5.782723 2.204639 -3.138749
2.190453 2.636444 -6.589857
-4.46423 5.45018 -0.8300935
2.651228 2.723979 -5.730525
3.833311 0.2860153 6.744514
1.612704 0.4989038 -4.775514
4.485299 2.374371 6.744514
-3.641463 3.665106 5.289867
-4.57632 2.42112 -3.730789
4.569572 0.4989037 -4.498294
-5.885201 3.216792 -3.909931
-0.9001643 4.546332 -2.755575
-1.716436 2.616097 -6.129074
2.45025 0.1524633 -6.061543
-3.901062 5.54603 -0.6259027
-3.936823 2.939387 -4.934747
-0.8229481 3.650371 5.260769
-5.83608 2.77784 -5.531547
0.6322662 3.064541 6.834839
-5.782723 2.301115 -1.149286
-0.07051018 1.052312 4.442821
-5.404007 3.492795 4.442822
0.3715243 3.12952 -4.232337
-2.482872 4.389145 -3.090434
-5.992441 4.856884 2.211801
-1.699858 5.98042 0.2994857
5.1811 0.96606 6.744514
-5.782723 3.650499 2.395334
1.966231 0.5107148 4.442821
-6.372368 5.440825 1.562056
-6.147176 2.596824 -6.647616
-4.482883 3.182653 -4.036048
0.09318161 0.1575744 -7.018942
3.262884 4.230345 -3.428728
-3.273657 3.649443 5.258044
5.064792 2.635522 -6.057312
5.413955 3.36854 1.540948
-4.179832 3.795318 -3.762527
2.395985 2.923131 -5.941168
-2.289223 0.6953609 -6.004111
5.57151 4.856152 2.807594
0.008200526 4.806589 2.913177
-5.450825 1.916236 4.628915
-1.201924 2.181485 4.484295
0.8073478 2.21934 4.34065
-5.375195 2.714868 -5.764186
4.137892 2.679311 -3.730789
2.458526 2.159595 5.406517
-1.567317 5.805103 -0.07399486
0.5290838 2.670362 -5.928604
1.837953 2.52654 -6.459925
-3.621048 0.4989038 -5.557708
-3.474412 3.788233 -4.34672
0.9130454 5.611647 -0.4861195
5.413955 3.665195 -0.8467741
-5.707305 0.5727358 -3.944169
4.243329 3.41487 6.558949
5.438128 0.5238245 -3.682015
-4.885053 4.445926 -2.969472
1.416333 2.810275 -6.35809
-0.6215692 4.981706 -1.828092
4.472128 3.485188 6.285072
-5.6218 1.977688 4.442821
-4.119865 3.928102 -4.072601
1.985625 3.131639 -5.170876
-6.395744 4.707953 -1.882226
5.88198 4.064654 4.493731
5.88532 2.595901 -6.707867
1.968848 0.8280983 6.705097
5.703659 5.699841 -0.2982361
1.339821 2.509481 -6.522945
0.601532 3.478325 6.096061
-4.606014 0.285354 -6.061543
-2.411997 5.240846 -1.276042
2.898911 3.31922 -3.730788
1.922536 5.979604 0.2937204
2.391244 5.441872 -0.8477941
5.413955 0.3733981 1.056316
-0.3995368 2.592906 -6.676814
3.876122 3.072896 7.448766
5.413956 0.3924187 -5.429985
-1.916989 2.164428 -3.772262
4.609641 2.569845 -6.561449
3.533133 2.726644 6.7956
-4.004602 1.929446 -3.730788
5.413955 2.366802 -0.04668685
-5.543972 2.928039 -5.923038
0.9835922 3.420028 6.538861
2.883007 1.82725 6.744514
3.669349 4.363698 3.856675
-5.710573 1.38972 4.442821
2.19139 3.803689 -4.337638
-5.782724 0.1373612 1.026186
-0.6572885 4.514308 3.535826
2.951754 2.164511 -3.730789
0.5339857 3.630198 -4.112799
-4.295803 3.212219 -3.926821
0.7634841 2.53934 -3.730789
-5.782724 3.783949 1.365507
2.296389 3.447702 -3.730788
2.335922 3.163813 5.255573
5.413955 2.422828 1.83747
-5.737392 2.616619 -0.2221316
-1.858573 4.010322 4.609476
1.341104 0.7034881 6.561254
2.278435 1.08399 6.683944
-3.481164 3.070007 -5.398563
-0.4730291 4.661272 -2.510718
-5.440871 1.447168 -5.936634
5.333415 0.4989037 -4.872958
0.9355689 3.42188 5.443051
-3.087228 1.024415 -3.730789
5.413955 3.219538 -0.3647444
-5.782724 5.248558 1.325369
-6.166788 3.977004 -3.968425
5.413955 1.181406 4.884485
-0.4179379 1.670364 4.493906
5.466361 2.918311 -0.4479277
-5.762443 0.4989036 -4.401271
-3.690843 2.666883 -3.585109
-5.114253 0.4989038 -5.776315
2.778662 3.224731 7.299511
5.413955 1.930213 4.799021
5.413955 3.078677 -3.387124
-5.311135 3.192282 -3.730789
-1.131015 2.606084 4.442821
2.753554 2.232402 -3.749582
2.458526 0.7341011 5.244814
5.413955 3.780205 -2.643426
0.6591163 3.590969 5.87307
3.769987 3.836555 -4.267625
2.576801 2.251301 -3.730789
-3.32666 4.337548 3.912383
2.458526 1.177299 5.530085
5.28682 2.155773 6.786294
0.513932 1.948708 -3.730789
-0.06781816 0.4989036 -4.209759
-2.287455 5.211794 2.049962
-0.8638169 5.392795 1.664373
-1.49773 3.730031 5.058753
1.919072 3.706006 4.664015
4.57823 3.073057 -5.387295
-3.03139 2.994241 -5.678467
4.77068 5.582441 1.260368
5.45907 2.232401 2.788242
-2.598749 4.388201 -3.092445
2.589247 3.263056 7.150241
0.9005315 5.12457 -1.523747
-3.662781 5.602979 1.216615
4.605262 3.78333 5.123851
-2.792379 2.922456 -5.943663
5.413955 1.915143 -1.539831
2.193959 3.208806 4.442821
5.445975 0.4341795 -4.828458
1.753188 3.360579 6.770404
5.413955 2.146589 -1.942656
3.805676 1.226216 6.504979
-5.782723 3.837775 -2.723294
4.668641 2.796783 -3.730789
-5.782724 1.518834 1.710191
4.703049 1.650392 -3.730789
-5.782724 5.003397 1.53663
-2.6752 4.007881 -3.902646
1.615522 2.0713 4.442822
1.446173 3.521206 -3.731702
-4.469895 2.402844 -3.730788
1.470577 0.4989039 -5.957755
1.341104 1.095638 6.705622
-0.09919018 2.860573 -6.172275
-3.822563 2.839384 -5.304188
5.413955 1.68649 3.37588
-5.782724 1.881382 1.988252
4.315986 1.501612 6.7956
3.371376 2.094301 6.785728
2.18558 1.883745 -3.484944
4.863284 2.76946 -6.508873
4.055341 2.669402 -6.561449
-2.92523 3.749522 5.058753
4.36149 0.8427564 6.744514
-5.795166 0.5238236 1.446536
3.667559 2.929129 -4.972641
1.952447 3.440087 5.372142
-4.763159 3.091075 4.442821
-5.782724 3.762573 2.416488
3.892775 3.820416 5.014035
5.324968 2.701389 -6.792617
-0.2913711 0.7239894 4.442821
-5.456066 2.903785 -5.066271
-1.754359 0.4246008 -6.56445
0.8769728 4.504381 -2.993811
1.116375 2.842278 -5.293492
5.73675 3.58799 4.914362
-2.864837 0.3505922 4.494314
5.413955 2.248192 -1.255027
4.989162 3.064776 7.470591
5.413955 4.622951 1.073559
5.413955 1.165543 5.53578
-2.460212 2.702743 -6.784633
5.413955 3.714539 3.374475
-5.782724 0.7539657 -2.244885
-0.6603324 2.598112 -6.638017
0.6590137 2.829967 -3.730789
0.3797323 4.008009 4.614403
1.205732 5.661629 -2.857721
-6.340837 3.034301 -5.530474
4.797104 6.336912 -0.6736122
0.9712868 5.191088 -2.83739
-2.730187 3.777904 -3.799467
1.08437 5.123438 2.238189
1.560596 2.142911 4.484461
-2.625474 2.762356 -6.554337
-6.0666 4.022289 3.989966
1.694259 1.972266 4.442822
2.397452 2.601881 -6.627671
5.413955 1.589662 3.488561
1.605532 4.472422 -2.913026
-5.782724 1.052785 2.324762
-5.6157 0.4989037 -4.414836
3.198177 3.372993 -3.730788
5.236801 3.748524 -3.861792
3.48364 0.4989037 -4.597396
2.789084 5.382334 -0.9746282
-1.028474 0.4563344 4.508745
5.413955 1.834132 3.019136
-3.610312 0.7124784 -6.004111
1.113333 3.236835 6.163779
0.9488815 0.4989023 4.972537
-5.71794 4.384617 -3.100079
1.804651 3.692647 5.477048
3.805513 0.4989036 -3.742353
3.196328 2.606052 -6.743277
5.466359 0.3583769 5.045499
1.935626 3.753508 -4.34672
-1.851826 3.385634 4.442822
-0.06414032 0.4989038 -5.857758
-6.026326 5.207819 2.058432
5.413955 1.423821 3.916617
4.426362 1.788858 6.744514
2.335922 2.90151 6.498699
-5.432616 3.196202 -3.985995
-1.188403 3.522064 5.054214
-2.461639 4.05166 4.521413
-0.2018295 1.54573 -3.559989
5.02441 3.179276 -4.994892
4.499987 6.15451 -0.973079
-3.449445 3.753644 5.304948
5.413955 4.188531 0.2426659
-3.870818 4.785298 2.958532
4.375607 0.4989037 -4.684891
-3.910845 4.08024 -3.748498
-4.220072 3.931573 4.777236
5.413956 0.2368317 -2.653926
4.46704 2.885086 6.744513
0.8571527 3.454034 6.40641
5.449069 0.3505933 -1.781004
4.214104 3.087205 -5.33503
-6.077053 4.93524 0.3463312
1.484496 2.503297 -6.545791
-4.326467 4.944726 -1.90687
5.115485 2.505464 6.772367
-1.127342 3.532123 -3.730788
1.354107 4.127298 4.360279
-0.6768103 2.560188 -6.335618
0.07482564 3.355782 -4.342829
2.262694 5.263147 1.940565
-3.328843 1.818377 4.343612
3.914274 1.226216 6.540097
4.657139 1.315378 6.744514
5.003433 3.751223 -3.856066
-5.782724 3.843021 -2.399593
3.44362 1.825279 6.646642
0.3148467 0.1734516 5.503373
3.778435 4.023585 -3.869191
2.090352 3.824791 5.004716
-3.744729 3.641988 -4.087788
5.413955 0.6919193 3.258208
2.408641 1.325814 5.657648
1.236066 5.630762 -3.325925
1.52511 1.51994 -3.730789
5.413955 4.473639 0.8241593
-5.782724 0.2598503 2.43541
-6.201627 5.689325 0.4373102
-0.3564389 3.276667 -3.730788
3.299998 2.594228 -6.209865
5.142668 3.316191 -4.489086
4.245515 6.440726 -0.6017815
5.413956 2.444392 -3.726333
2.080383 2.576381 4.442821
-0.4629445 5.872708 0.6420079
-4.448831 4.58427 3.386785
1.100419 0.5238231 4.48503
0.556846 0.7645659 4.442821
1.249056 3.015631 -5.599446
3.04143 3.190852 -4.952127
1.080679 2.945392 -5.858927
-1.96453 4.882115 2.752282
-0.3737422 0.2900911 4.442821
2.458526 1.019066 5.47247
-5.284296 4.411715 -3.042353
5.940561 3.399581 -4.181019
5.565554 4.277787 -2.733474
3.343807 2.309374 6.744514
-2.716442 4.295697 4.001537
-0.8705051 2.58391 -6.247983
5.413955 0.9740726 1.178053
-3.473619 3.287821 -3.730788
3.864008 3.130047 -5.17676
-2.52929 0.4989036 -4.071978
5.468598 4.693015 -1.848818
-5.782724 1.561952 3.274859
-5.782724 5.279047 0.8441212
3.020329 0.4776023 6.810438
0.9607334 3.613135 -4.148993
3.017485 3.788431 5.103984
5.413956 0.1362663 -0.8990654
1.896567 0.4989038 -5.415993
-3.391768 3.351753 -4.357709
4.955891 2.888146 6.744514
4.28928 5.814433 -0.5398627
4.862178 2.079145 6.753832
-3.872137 3.796941 5.058753
2.989365 4.479319 -2.898335
-6.240825 4.306415 3.978706
5.413955 4.028226 2.343235
-1.040096 5.580347 -0.5527971
-1.646981 0.8487415 4.442821
3.886101 0.9983733 -3.730789
-5.244448 0.1286641 4.442821
4.102382 1.750872 6.62191
3.733453 1.555546 6.62191
-1.605726 0.4900349 -3.730789
-1.063987 3.469096 -3.92421
-2.37014 2.329167 -3.730789
2.343603 0.4989037 -4.659569
-2.455595 5.280879 -1.190757
0.280077 5.885365 0.6150433
6.026976 2.896582 -5.95958
2.844658 4.117456 -3.669215
5.413955 1.153385 5.850275
1.172417 1.492357 6.774524
-5.782724 2.123615 4.054966
-2.499416 2.753088 -6.561449
-3.035754 4.261624 4.074123
-5.835451 5.199286 2.076608
3.246433 4.233682 -3.421618
5.413956 1.616318 -3.687835
-1.076139 0.4989039 -6.077206
5.166153 3.798089 5.066367
-4.6571 5.834745 -0.01084857
5.252675 2.808841 -6.363391
-4.120873 3.58248 5.055841
4.152711 4.520843 3.521907
-4.745906 4.923296 -1.952522
-6.212198 5.997457 0.3321123
3.915262 0.4989037 -4.395379
-1.346849 2.358217 4.442821
3.628401 4.503374 -2.84709
5.413956 0.1380175 2.235877
2.284837 2.058531 5.809847
3.29998 5.853022 0.6839442
-6.395744 4.290848 3.681161
-2.599011 3.242319 4.442822
-2.786155 0.2201125 4.442821
5.413956 0.4595056 1.902476
-3.169638 2.449041 -3.632915
-6.395745 5.088891 -1.511095
-5.011338 3.655319 -4.059508
2.335922 2.309711 5.01169
-5.795366 4.205557 -3.481535
0.7958978 0.3021984 4.442821
5.413955 1.883689 5.929828
2.346973 0.4989037 -4.566096
-4.779541 4.295955 4.316658
1.737531 1.245289 6.684411
-2.916022 1.336846 4.442821
0.8054225 4.277798 4.039667
5.413956 0.1519495 -1.491341
-2.516533 2.820138 4.44522
4.347933 6.150893 -0.7647693
-1.723688 4.234694 -3.419463
-5.415493 0.4989039 -5.979935
1.703271 3.248669 -3.792166
1.769907 3.706002 4.664023
5.46052 0.1671775 0.6970594
-4.986724 1.563018 4.442821
-1.607562 4.174048 4.260687
-4.319742 2.848279 -5.271327
5.212095 3.485842 -3.86235
-1.448276 0.4811464 4.442821
5.413956 0.1035555 -3.245117
-3.594032 2.627004 -6.59592
-5.641476 0.3505922 4.49722
-5.782723 3.265805 1.315725
5.413955 2.585436 -1.643104
1.733791 0.4128075 -6.061543
-0.110486 0.1575744 -6.763823
0.4027388 5.942016 0.2128981
-1.82086 5.581405 1.262575
4.423673 5.803807 -0.07675675
0.2697649 3.53764 -3.734495
-4.809767 5.199715 2.075696
-1.515646 4.699639 3.141012
-0.9288728 3.519613 -3.757202
1.701786 4.097397 4.423981
1.625759 4.766951 2.997618
4.146377 5.338236 1.780602
2.335922 2.927567 6.130146
5.413956 5.602717 0.4022661
2.376228 0.5479759 5.216043
3.185888 0.4989036 -4.293924
-5.782723 2.411255 -1.380207
2.742017 4.605497 -2.629536
-1.999761 5.946653 0.4844802
5.823163 4.93909 2.035496
-3.625013 3.695071 -3.730788
-6.322558 4.792514 2.950938
2.43358 4.004173 -3.910544
-5.782724 0.2210522 4.123221
5.413954 2.968187 -1.235464
1.94081 2.832777 -6.274961
-5.453107 1.392179 -5.860538
2.284511 0.6585647 6.683944
4.614553 3.549527 -4.283926
-5.215703 5.455577 1.530628
-3.527655 3.533528 5.029895
6.026977 5.38464 -0.9064626
2.184527 2.426101 4.442821
-1.185022 2.83913 -5.305123
-5.782723 2.050461 -0.2384089
5.413955 3.396014 3.080931
3.959774 4.301258 -3.277661
1.150584 4.81274 -3.290328
1.341104 2.598909 6.577868
1.829501 3.168071 7.384653
-1.702705 4.514804 -2.822739
3.428886 2.162996 -3.776349
-3.414972 3.030346 -4.598715
