5.413955 2.861975 5.265133
5.413955 4.370329 1.343147
5.413955 1.593743 -0.2914266
-0.5974534 5.658139 -0.3870745
0.8477603 4.599568 -2.642166
3.173369 5.968587 0.2700341
3.806689 2.768745 -6.511516
1.75242 4.531844 -2.786439
5.599864 5.152892 1.58003
-1.32557 3.527063 5.043609
5.413955 3.669136 -0.02317083
0.00343442 4.246068 -3.395233
2.335922 1.560357 5.745297
5.413954 2.14631 5.581026
-0.4300899 4.74408 -2.33431
0.9571634 0.4989036 -4.040869
2.888869 5.121569 -1.530139
-1.166322 3.486928 -3.858333
0.1229761 4.729686 -2.364974
-0.6518004 5.630935 1.157061
3.249409 2.731624 -5.702282
5.413955 1.768054 0.1788819
5.956239 4.047434 3.935003
4.999952 3.077383 -4.424949
5.413955 4.942024 0.6719679
-0.9340754 5.844301 0.009509489
5.392425 3.677072 5.53771
2.720654 0.2224268 6.744514
3.136741 0.4989036 -4.319043
5.023514 3.49073 6.263486
2.179458 5.121872 2.241525
5.413955 3.317202 -3.622273
3.456658 0.8331541 -3.730789
5.221978 5.815493 0.7638925
0.2560551 3.75241 -3.853548
2.335922 1.715703 6.51056
-1.531895 0.5647869 -3.73079
5.741555 3.521791 6.14251
2.685349 2.811408 -6.353906
2.363979 5.140448 2.201952
-1.433798 2.270841 4.442821
2.605988 2.10156 -3.730789
5.648853 5.50214 1.431434
0.8988017 4.758805 3.014972
5.413955 0.9875577 1.075861
-0.456799 2.863128 -6.162836
-1.63005 0.8007904 4.442821
0.3254609 3.320352 -4.473714
3.750121 3.505517 -3.789658
5.307217 4.13523 -3.631352
-0.03338623 2.939246 -4.935266
5.821887 5.27113 -1.211527
1.945839 3.282641 7.073959
5.917653 4.678023 3.187063
5.413955 3.178302 2.547218
5.413955 3.150517 5.76147
-1.140851 5.625816 1.167965
2.366718 4.794075 2.939836
4.00897 4.240048 -3.408056
3.890855 4.476402 -2.904548
0.4851567 3.597976 -4.181152
-0.4975674 4.671127 3.201754
4.293913 5.038273 2.419617
4.733338 0.5759759 -3.730789
0.8104281 5.776372 0.8472347
5.809573 4.27971 -2.728184
3.863569 0.4989039 -5.719512
4.777994 5.419749 1.606954
1.026082 1.668975 -3.730789
4.441166 2.458906 -3.730789
5.577837 5.782043 -0.1231203
-0.07761407 3.446162 -4.008936
-0.8399364 3.026419 -5.55959
-1.58948 4.8977 2.719082
5.903759 4.206853 4.190802
2.250544 2.815903 -5.39093
2.335922 1.934796 6.501334
-1.468452 0.7157807 4.442821
0.4952465 3.17822 -4.998793
2.751827 3.248854 -3.791481
0.2085675 3.737385 4.597452
4.854297 3.79733 5.069323
5.413955 2.522799 5.296141
2.913474 3.773853 5.160762
2.304051 0.4989021 6.507803
-1.382815 1.628416 4.442821
5.814926 3.824533 -3.698447
5.155058 4.387115 3.806788
2.962388 1.064257 -3.730789
2.575713 3.649579 -3.730788
2.414303 3.377022 -4.264359
5.413955 4.331429 -0.9522165
4.663413 2.805043 -6.377419
4.392686 3.384757 -4.235785
5.576075 3.780398 5.135271
1.861025 3.482708 -3.873925
4.057312 0.4989039 -5.930901
5.413955 0.2554189 4.37134
0.5013011 5.649629 -0.4052038
2.765603 1.614758 -3.730789
2.999607 0.7120789 -3.730789
5.413955 4.187782 -2.628795
2.751877 1.071209 6.744514
-0.921082 2.753569 -5.62121
-1.324975 3.109905 -5.251171
5.413955 1.522586 2.595509
0.968322 0.4989038 -5.348776
5.413955 1.722034 -1.25286
3.209096 2.547568 -6.382241
5.413955 3.693799 -2.281655
-0.3059276 4.781648 2.966309
2.471146 3.752462 -3.853438
1.106856 5.662612 -0.3775468
5.033122 5.839982 0.7117249
5.413955 3.242914 4.065701
0.2953386 5.100931 2.286135
5.413955 2.32791 -1.127371
-1.480865 0.4989035 -3.840668
0.3278618 4.025487 -3.86514
2.067294 3.023418 6.995005
5.912203 5.347584 -1.048655
-0.5988881 3.865289 4.918441
-1.22107 4.843722 2.834072
4.301222 3.822919 5.008703
1.806908 3.016594 7.021583
-1.324253 0.7069217 -3.730789
-0.08252329 3.949741 4.738533
2.25457 5.552672 -0.6117526
5.413956 0.8638939 -2.182776
4.755667 2.774762 -6.489289
5.413955 4.393648 -1.230803
5.413955 0.6875932 3.288409
4.304258 3.378272 -4.25974
4.381434 4.205654 4.193358
-1.316256 5.987655 0.311034
0.8988454 2.939551 -4.934141
5.413955 2.702446 2.135286
5.413956 0.8330556 -0.5654535
1.804963 2.962994 -4.847534
-1.44254 3.376235 -4.267266
5.332796 5.80232 -0.07992536
3.899382 0.4989036 -4.241219
5.372787 3.06209 6.744514
2.335922 2.307051 6.414635
5.454603 4.980643 2.542387
3.580828 3.589427 -3.730788
5.65981 4.794826 2.342888
-0.4174119 3.33996 -4.401278
5.636931 3.883255 4.880169
5.413955 5.218835 0.8048045
4.071 3.232719 -4.797458
-1.613333 5.155024 -1.458869
0.6421733 3.559356 5.996199
0.2735076 5.893333 0.1139628
5.413956 0.01101441 -5.01186
5.492881 3.446444 6.435974
0.5186939 5.453465 -0.8230968
3.462666 4.172966 -3.550964
0.7356771 3.347847 4.442822
4.160061 4.626796 3.296193
3.464592 5.647398 1.121989
5.413955 0.8173116 0.7112179
-0.7688925 3.392094 4.442822
5.413954 2.776757 0.2522612
5.259656 2.471238 6.744514
0.8723752 2.614235 -6.561448
4.700886 5.730011 0.9459967
0.9510874 5.590312 1.243599
4.847246 3.027898 6.977559
5.413955 0.9624185 -1.409096
-1.674296 0.4989036 -3.929713
0.955694 2.625947 -6.092685
4.28821 2.652491 -5.994626
2.317662 4.29731 3.998101
5.413955 2.223608 1.441804
1.126853 5.989816 0.3925308
3.475432 4.792882 -2.230346
2.400524 3.129698 -3.730789
5.413955 3.157229 6.03532
5.5843 3.021285 7.003314
4.478426 2.718086 -5.752295
5.413957 0.3327004 -3.055269
3.448433 4.979379 2.54508
1.524154 3.52732 -4.331034
2.695726 0.6535485 6.744514
3.862206 3.75068 -3.857217
5.77114 3.0958 -5.303275
3.56021 4.780866 2.967977
5.413955 3.486108 1.135844
2.267297 1.875671 4.442821
5.413955 3.009195 0.4481453
1.547342 0.4989022 5.743899
0.6193223 3.573391 -4.233304
0.8113006 0.4989021 6.288331
1.343132 3.323031 -3.730789
1.062436 0.4989039 -5.766525
-1.238268 5.479305 1.480079
5.666566 3.972583 4.689872
2.40496 3.998868 -3.921845
0.4252863 2.961665 -4.852442
4.399495 3.079629 -4.41665
5.901697 4.153979 4.303442
4.103092 5.887979 0.1025554
1.574777 0.4989037 -4.127964
0.4174714 3.092474 -5.315564
5.413955 1.737137 5.378109
5.413955 4.296885 3.191273
3.322306 3.672595 5.55515
5.413955 0.4943382 5.25822
0.6118101 2.338924 -3.730789
1.966458 3.768236 5.182642
2.347637 5.282184 1.900011
5.095388 5.226153 2.019373
2.661848 3.061542 -5.429836
3.93188 3.752002 -4.343809
1.514675 4.305641 3.980354
5.413956 0.2137376 0.2142897
2.335922 0.6731473 5.966345
-0.001115799 3.769392 4.529554
2.847758 4.575884 -2.692621
5.413955 0.2596722 4.075738
3.904651 2.525341 -6.464353
2.779871 2.049937 6.744514
1.735583 5.076105 -1.626991
4.275615 5.974134 0.425937
3.72324 0.4989037 -4.316472
0.9416037 5.12099 -1.531373
1.82123 1.101929 4.442821
3.498442 3.133011 -4.219441
5.413955 3.252549 5.70025
5.83641 5.631669 1.155497
-1.607711 3.878173 4.890994
5.913764 3.191703 6.33956
0.8390011 3.723046 -3.915838
4.129992 0.8799392 6.744514
3.548816 5.33966 -1.065536
5.149435 5.634554 -0.4373184
2.559285 2.925954 -4.984371
5.413956 0.2596582 -3.262188
2.327471 4.42452 3.727104
5.413955 3.171852 0.4824109
5.413955 1.510686 -1.667191
-0.7520394 0.4989038 -4.818896
-0.6866846 4.536593 -2.77632
0.1393005 3.191417 -3.730788
1.747993 3.243476 -3.811352
-1.013914 0.4989036 -4.366821
5.413955 1.505833 6.228099
4.106324 2.517848 -6.492036
4.908926 3.414845 -3.730789
5.062436 2.162442 6.744514
1.11489 2.988328 7.131677
0.5675874 3.140725 -4.190943
-1.451207 2.79904 -5.45323
5.413955 1.317871 -0.4355316
3.346968 0.4989039 -5.610562
1.625872 3.954263 4.728901
3.113087 1.542043 -3.730789
5.53188 5.216461 2.040022
4.075661 0.4989037 -4.676321
0.7264905 5.086192 -1.605503
-0.8948519 4.695292 -2.438244
-1.323143 3.176872 4.442822
3.346615 5.847322 0.01594284
2.335922 2.729203 5.589289
4.899541 4.586447 -2.670117
0.4243017 3.315905 -4.490145
1.30653 3.343542 -4.388044
0.6305268 3.743162 4.585196
1.715547 4.769539 -2.280073
3.199585 5.598477 1.226206
0.3008028 5.364163 1.725368
1.541244 3.366329 5.659418
2.50685 4.101893 4.4144
4.050227 0.4989038 -5.528843
5.413956 0.6508453 -1.599583
3.802215 4.173463 4.261935
1.028779 0.4989023 4.997279
3.621624 3.164208 -5.050557
0.004763603 5.885024 0.6157717
0.9582411 2.692475 4.442821
5.413956 0.4621195 1.091942
3.416997 5.130597 2.222937
3.695032 4.275584 -3.332354
-0.07501638 0.568715 4.442821
5.337285 0.4989039 -5.993618
5.413955 3.147707 5.596919
-0.4549782 5.304345 1.852801
2.439951 1.664098 6.744513
5.413955 0.5744083 3.824989
3.603922 2.918763 -5.957306
3.637381 0.2885623 6.744514
4.480738 3.65784 5.612616
3.979159 3.973686 4.687523
5.413955 3.164727 -3.532224
2.910477 3.447119 6.433345
5.994503 3.432513 5.401641
0.9566795 3.288468 7.051266
5.413955 2.768452 6.618664
1.329261 3.343501 6.836921
4.75871 5.503876 1.427735
6.026977 4.909849 2.49692
1.705254 2.723464 -5.73243
1.370941 0.4989021 6.158898
2.488372 3.2029 -4.90762
1.859499 1.537137 4.442821
2.455291 0.5884021 -3.730789
5.413955 2.759699 -2.702051
2.763501 4.605565 -2.62939
4.835344 5.328384 1.80159
1.436749 2.622806 -6.104289
3.168367 3.00208 -4.703137
-0.6144602 5.957893 0.2514952
-0.2925665 2.702744 -6.6125
0.36943 0.4989037 -4.553858
3.012874 4.736092 -2.351327
0.7607524 5.871716 0.06790981
2.333076 3.471512 5.249743
-1.296439 3.643318 4.796997
5.377441 4.803358 2.920061
2.133143 2.140842 4.442822
5.413955 1.366202 0.07942748
2.76419 3.281227 7.079471
5.413955 1.884588 -1.575259
0.7287613 5.130755 2.222602
5.413955 3.187972 1.294788
-1.713455 3.156182 -5.080208
4.375319 0.7252182 6.744514
0.5295043 5.593097 -0.5256347
6.026977 4.934839 -1.389231
-0.8627121 3.786544 -3.730789
0.8666911 5.809861 -0.06385984
1.754864 0.4989038 -5.697739
5.413955 2.121531 -1.851429
1.79381 1.742332 4.442821
-1.443161 1.340926 4.442821
1.408229 3.793792 4.442822
3.18126 0.133729 6.744514
1.798771 3.390332 6.654524
5.413955 4.759712 0.376083
1.917714 3.357596 5.693429
2.640063 5.63314 1.152364
0.2181151 0.4989037 -4.503549
5.413956 1.433112 -2.751727
1.375553 0.4989021 6.257298
5.002907 0.4989037 -4.572113
5.413955 3.980126 2.767958
-1.392792 0.4989038 -4.866683
-0.7598839 0.4989039 -5.866971
1.737988 0.9530914 4.442821
5.413955 1.528854 6.032081
-1.605525 2.573304 -6.287165
5.413955 1.892745 5.41081
5.419217 5.117888 -1.537979
2.689544 2.627159 -6.561449
3.649773 3.529476 6.112576
-0.297234 3.620118 4.442821
2.323789 3.627616 -4.343809
1.373746 3.963281 -3.997657
5.413955 1.195829 5.941574
-1.173135 1.238797 -3.730789
4.217936 0.827911 -3.730789
2.752812 2.505998 6.744514
2.335922 1.23399 5.730139
1.936479 3.4803 5.215519
5.413955 3.092812 -3.465867
5.413955 2.451685 4.623186
5.994619 4.760564 -1.703781
-0.1357964 4.412546 3.752612
2.656474 2.565756 -3.730789
5.775592 2.832581 -5.329317
5.950847 4.614154 -2.611093
3.891708 4.392745 -3.082764
1.553967 3.402558 5.51831
5.809901 5.307372 1.846354
1.627483 3.127078 6.591265
5.413956 0.3181097 -0.3480256
0.9714044 2.822837 4.442822
5.510901 5.213713 -0.7386552
5.413955 2.697254 3.20659
-1.155162 4.691291 3.158798
-0.8297113 3.61048 5.055841
-0.836285 3.309435 4.442822
5.413955 3.130306 -0.1072998
-1.639989 3.714697 4.442822
4.34769 0.4989038 -5.48561
5.521961 5.68504 0.4463873
4.597317 5.515448 -0.6910524
4.718615 2.697948 -6.561449
5.413955 0.4231154 4.388477
4.64351 2.940951 7.316204
5.503597 3.753786 -3.850629
5.422508 5.847356 0.01601703
3.153273 2.608608 -6.15674
2.771578 3.238252 -4.777019
5.739185 3.069246 -5.401376
4.524014 3.121949 -5.206676
4.694236 3.585227 -4.208197
-0.7500272 3.126292 -5.190633
4.745779 4.59191 -2.658479
5.879904 3.121715 -4.261174
0.7726842 4.297948 3.996741
2.89477 3.13608 -5.154471
3.545306 5.446797 1.549331
3.725477 3.690571 5.485135
-0.2622793 3.557264 -4.343809
0.0812819 5.690848 -0.3173932
-0.6865635 3.187633 -4.017653
0.05402756 2.602746 -6.178398
5.176836 3.642191 5.673565
3.925538 2.906672 -5.055605
-1.178377 4.976442 -1.839305
-0.594909 5.662629 1.089542
-0.1450011 4.774175 2.982229
5.413955 2.074247 3.096307
-0.1176608 3.191994 -4.001541
5.413955 3.81507 3.864091
1.851618 5.875233 0.07540394
-1.218584 2.889173 -6.066621
5.413956 0.2773449 -2.808744
2.111025 4.725346 3.086251
-0.6762393 2.671924 -3.730789
3.607241 2.769936 -6.507114
2.335922 1.92197 5.953233
4.639853 2.702745 -6.667588
-1.159536 3.888092 -4.157834
2.335922 1.690421 6.116145
-0.4213829 3.123793 -5.199863
2.461679 3.399557 -3.730789
2.441333 0.4634722 6.744514
3.55922 5.131896 -1.50814
-0.9349551 5.01657 2.465851
5.413955 2.900628 0.2635211
1.380725 4.171865 -3.553308
-0.562682 2.726077 4.442821
5.413955 2.022936 2.312508
-1.255641 3.216999 -3.909164
4.747857 5.915261 0.5513557
3.187631 0.4989036 -4.371374
3.0514 0.1888781 -6.061543
5.413955 1.635779 4.763826
3.655611 5.595955 1.231578
4.321681 2.6433 -6.02858
0.4602385 5.584417 1.256158
2.335922 1.260177 4.530579
3.15399 3.354747 -4.34665
-0.7692115 5.348894 -1.045865
1.666369 3.451018 5.329564
-1.168062 5.726018 -0.2424712
0.7707056 3.202788 -4.908033
1.214337 0.4989038 -5.488079
0.1375549 3.63219 -3.730789
6.022647 3.010652 -5.61784
4.7624 0.790069 -3.730789
0.6670107 2.780558 -5.521507
4.554232 2.857504 -6.183612
5.202816 3.127809 -4.238657
2.018485 2.954209 -5.826357
4.623726 2.385645 -3.730789
5.413955 0.8169105 2.973662
-1.246992 3.027174 -4.610434
5.439378 3.500938 -3.806576
5.413955 2.951918 3.729367
5.600851 4.972968 2.558738
0.6979719 4.881165 -2.042276
-0.1620691 5.49199 1.453056
5.413955 3.989055 -2.316454
-1.449936 2.965628 -5.784171
3.421933 5.263896 1.938968
5.164248 2.851817 -5.258256
5.413955 1.666276 -1.645257
4.68891 2.860094 -6.174044
-1.412073 5.765524 -0.15831
5.413956 0.02675112 1.699925
-1.591066 0.4989036 -4.029631
4.624448 5.34922 1.757202
-0.9087607 3.641086 4.801731
6.026977 5.132424 2.040202
-1.590762 2.865556 -6.153867
2.675936 2.06108 -3.730789
5.413955 1.667395 2.044766
5.413955 2.131443 0.6106502
2.095857 5.953098 0.4707533
4.070163 5.331649 -1.082602
5.413955 3.352606 -2.663566
1.870091 3.229837 4.442821
-1.719509 3.784636 -3.785188
-1.279346 4.449551 -2.96175
2.982346 0.4989038 -5.282355
3.763355 3.323249 -4.463015
4.174313 0.8320066 6.744514
5.087923 5.573719 -0.5669171
1.65714 2.753164 -6.561449
-0.3825137 1.714642 4.442821
5.413955 3.030189 -1.935206
2.682749 0.4989038 -4.962084
5.413955 1.704806 1.050852
1.808734 0.4989038 -5.10842
5.413955 0.7139173 1.107849
-0.3210766 4.824034 -2.163982
5.05414 5.447399 -0.8360186
1.276856 5.92452 0.1804014
4.898721 2.844936 -6.230042
-0.1359062 5.619826 -0.4686936
2.509866 5.596993 -0.5173354
-1.578336 3.826479 -4.28909
5.413955 2.486653 3.201335
5.523777 3.406832 6.590257
2.748856 3.723301 5.357657
3.14229 5.50715 1.420761
5.644444 4.299043 3.994411
5.654868 4.196761 -3.500272
1.412679 2.954251 7.264404
5.413955 0.1200029 1.805614
1.272965 3.51883 6.154042
-1.331582 3.118795 -4.271958
2.335922 0.7611625 5.785831
1.965087 3.207809 -3.943116
5.212141 4.299043 3.994411
5.413955 1.014112 1.396712
4.434328 2.735301 -5.688698
1.947812 4.60944 3.333166
2.073949 3.409682 -4.143703
0.4227374 4.738731 -2.345704
-0.6851828 2.732715 -5.698254
-0.1312251 2.617901 -6.122411
1.512485 5.954736 0.2402504
4.822327 5.887011 0.1004943
3.622826 3.218239 -3.904585
2.591683 3.833342 -4.27447
-1.663704 2.62922 -6.080594
-0.8701191 5.244158 -1.268985
5.191211 5.629432 -0.4482312
5.413955 0.5357051 0.4943075
-1.002616 3.639934 -4.092146
3.015666 3.537078 -4.310334
5.413956 1.879303 -2.73979
0.8354157 5.475842 1.487457
-0.2231058 0.4989039 -5.987822
5.413955 0.7171413 1.332395
-0.5555768 5.612055 -0.4852484
5.413955 3.39259 -0.3233236
1.889438 3.330876 -4.434836
4.164263 0.2656059 -6.061543
3.889807 0.1845701 6.744514
5.265422 4.966373 2.572786
-1.662508 3.446017 -4.009473
4.767071 3.966465 4.702907
5.348794 2.562292 -6.327844
5.413955 2.915132 6.442905
4.584135 3.553589 6.018657
-1.493232 3.937458 4.764698
5.413955 0.5786677 5.141444
5.413955 2.962731 1.954232
0.6530826 2.970893 -4.818353
0.2400416 3.979923 4.674235
2.609337 2.776654 -5.535931
5.413955 1.110679 3.051265
1.12285 2.723312 -5.73299
5.413955 2.527248 2.971453
5.652722 4.751736 -2.318001
0.1208223 2.824192 -5.360311
2.925802 5.621159 1.177886
2.335922 2.954276 4.564929
5.620981 5.235388 1.404287
2.877806 5.45432 -0.8212748
4.191254 1.531745 -3.730789
1.166038 3.025356 -5.563519
0.5804093 5.501431 1.432943
2.151334 4.957463 -1.879735
1.175291 1.125588 -3.730789
5.611592 4.619054 3.312685
-0.08628154 5.95197 0.2343011
3.105723 2.66341 -5.954286
2.129832 4.857155 -2.093424
2.997943 4.847993 -2.112941
-0.2245883 4.447483 -2.966156
3.736853 1.383575 -3.730789
5.93079 3.64401 4.794727
-0.5108273 3.818309 -4.306494
3.039916 3.566263 5.969296
-0.6055435 3.625568 -4.122618
4.753121 5.337253 1.782696
2.184846 3.208936 6.27244
5.413955 0.770314 4.882758
4.520738 3.229264 -4.810223
0.297747 3.22369 -4.830815
5.413955 2.858335 3.684737
2.979096 3.404371 6.599839
2.320748 3.543985 4.442821
5.413955 2.269564 -1.710199
0.9969354 4.147814 -3.604544
5.413956 0.2033618 -3.986574
2.498673 3.364408 -3.730789
4.284263 3.73966 -3.880593
5.826585 2.718874 -5.749386
-1.141715 3.722089 4.629899
4.2091 3.30873 -4.516652
5.413955 2.078732 -1.803955
-1.354659 5.501221 1.433391
0.7240515 2.9405 4.442821
3.703161 5.618474 -0.4715737
5.9673 2.938138 7.32716
-1.116641 5.315263 1.829541
5.413955 2.994826 3.52661
5.413955 0.5200702 2.478352
3.051201 1.354583 6.744514
2.219579 0.4989021 6.068451
-1.139944 3.772434 4.523102
5.330386 4.676551 -2.478166
-0.3106517 0.4989036 -4.073617
2.793004 1.185636 -3.730789
0.7735109 3.124057 -4.252519
1.843376 3.263663 6.059287
4.918818 4.653966 -2.52628
1.961227 1.423843 4.442821
-0.8707358 3.787353 4.491454
3.612601 5.744089 0.9160064
5.204556 5.701748 1.006205
-0.9682221 3.234435 4.442822
0.6305377 0.4989038 -5.879497
5.413955 3.278689 -3.255803
0.7823515 0.4989036 -4.331308
1.225881 2.90441 -5.063962
5.755758 3.473204 -3.909036
5.735915 3.290634 -4.583502
5.676041 4.20704 -3.478375
-0.154953 5.280684 -1.191172
1.164995 5.644814 1.127494
2.093249 2.420549 4.442821
5.488234 4.73202 -1.765576
-0.26543 5.000171 -1.788756
5.905882 5.160735 -0.85129
3.775472 1.299762 -3.730789
-0.922483 0.4989038 -5.67745
1.786543 3.566068 5.970055
5.852034 4.672022 3.199847
-0.8331304 5.06467 -1.651353
5.413954 2.239434 5.409131
4.971445 3.707517 -4.343809
3.499645 0.6252515 6.744514
-0.9352705 4.778309 2.973421
-1.670144 2.787694 4.442822
5.413956 1.640735 -2.788096
6.026976 4.977631 -1.828261
5.413955 1.012145 -0.6710151
2.726969 0.1526181 -6.061543
1.075077 5.561708 -0.5925019
5.413955 3.67929 2.844835
4.949686 0.4989037 -4.677016
5.413955 3.875994 3.183734
0.4353318 2.92323 -4.994433
4.603208 2.571706 6.744514
5.413955 2.106091 -2.494616
5.413955 1.376593 4.250359
2.276698 3.060773 -4.48631
5.413955 3.914877 2.21096
-0.5786214 3.089122 -4.381581
3.492587 5.663619 -0.3754005
-0.2485044 2.78228 -6.461512
3.511153 5.733088 -0.2274114
1.626542 3.088082 6.743152
5.668753 4.079644 3.867377
-1.006178 2.712125 4.442821
2.953827 0.668582 6.744514
2.059503 5.65359 1.108798
5.413955 1.927866 2.917181
-0.8017097 5.022372 2.45349
3.991732 3.107578 7.38116
1.173351 0.4989039 -5.930657
1.24136 3.023578 6.994384
4.030858 3.533087 -4.3188
-0.01254976 3.460094 -3.730789
3.588209 3.056944 -5.446823
1.581293 5.155989 2.168845
5.084345 4.027786 4.572272
2.903239 0.2205935 -6.061543
2.068565 0.5155663 -3.730789
5.413955 2.922317 -2.546856
-0.2515104 3.286231 -3.730789
5.413955 0.2370011 0.7538799
5.413955 2.686004 -0.03495306
-1.682581 3.383065 -4.242033
-0.7518636 3.344714 -4.383716
0.8845208 3.568889 5.959066
4.809502 2.825962 -5.353771
4.049944 3.106068 -3.730788
-0.1006773 0.9355078 -3.730789
5.081905 5.567481 1.292238
-0.2964711 5.25922 -1.236898
5.413955 1.944581 6.09209
5.413955 2.23456 3.189544
-0.8644179 3.760344 4.442822
2.963441 3.997829 -3.92406
4.197309 3.08092 -5.358249
1.230967 3.317174 6.93946
2.335922 2.692159 5.952368
5.413955 3.25654 -2.380845
-1.028924 5.492021 -0.7409582
5.852983 2.962756 7.231277
3.43754 3.187227 -4.019151
3.084491 5.685063 1.041749
2.467018 5.363287 1.727234
0.08540127 3.691364 5.055842
4.49486 5.714775 0.9784548
5.842785 3.761378 4.544966
1.536709 3.069026 6.817371
4.405644 3.721241 -4.343808
1.186944 5.308141 -1.132681
4.075439 0.2007389 6.744514
-1.204472 2.702744 -6.615952
3.328721 4.846341 2.828493
1.657375 0.4989038 -5.752462
5.413955 0.1597294 4.146734
4.881898 3.435938 6.476893
-1.081404 3.168824 -5.033506
5.86929 5.98028 0.2951761
5.070534 3.262621 7.151935
0.9951329 3.136125 -4.207936
-0.7171857 4.994075 2.513773
1.476508 5.308794 1.843323
5.413955 1.527194 3.52041
5.413955 3.43255 4.188753
5.275064 5.862764 0.04884063
0.1196272 0.4989037 -4.893441
5.413955 5.000117 0.9423454
1.034039 5.055337 2.383265
5.413955 2.32089 2.936374
0.4348696 0.4989036 -3.988987
-0.160008 3.344083 -3.730789
3.778459 4.647871 -2.539265
3.621642 5.60391 1.214631
1.042616 3.272964 6.023061
5.413956 0.407497 -0.9711121
3.955264 3.2574 -3.759909
5.413956 5.129238 0.7359061
4.514587 1.603558 -3.730789
-0.6069734 2.93595 -4.947444
5.567151 4.443748 -2.974112
3.137752 5.830655 0.7315939
2.335922 1.535447 6.543729
-1.648071 0.4989038 -5.063911
5.905131 4.069482 4.483447
3.194584 1.600058 -3.730789
2.214029 3.511818 -3.766383
-1.119688 3.603656 4.881132
0.9642462 3.242018 -4.763103
5.413955 2.120631 6.436062
2.335922 2.801376 4.655425
2.218674 3.224023 6.213678
5.413955 3.381311 2.678959
3.998106 5.758175 0.8859969
1.235613 0.4989021 6.001405
5.413955 3.684694 3.381721
4.365228 2.751148 -6.561449
-1.50482 3.976927 -3.968587
4.60228 6.005614 0.3531564
5.442851 4.847464 -2.114068
0.8763679 3.363088 -4.315837
5.413955 0.1822401 4.369637
2.211098 4.29702 3.99872
5.602193 5.065005 2.362671
5.361675 0.4989037 -4.404574
5.413955 1.546391 -1.576347
1.631214 4.395444 3.789044
5.608546 3.636223 5.696813
5.413955 2.728942 2.42069
2.744619 3.80518 -4.334465
5.413955 2.745339 0.9609827
2.38467 3.226652 -3.873502
2.670911 3.664509 5.586642
5.44939 3.498418 -3.815888
5.413955 1.772198 3.821559
-1.587421 3.603261 4.881969
2.171975 3.40922 6.580956
3.015509 0.4989037 -4.452137
2.997371 0.4989039 -5.993963
4.972939 3.015404 -4.653916
0.6612709 0.4989037 -4.671658
5.413955 0.3015456 2.83869
-0.6614887 3.585661 -4.207275
2.598112 2.145757 6.744514
4.87825 3.368934 -4.29424
5.902043 3.812198 -4.319512
0.5884635 4.355316 -3.162501
1.737407 5.629588 1.15993
1.588578 3.323725 -4.461254
-0.01953888 2.702744 -6.579431
4.037689 4.277567 -3.32813
4.705301 5.537072 -0.6449857
-0.7996591 0.4989038 -5.591848
3.391755 4.585422 3.384334
5.659233 4.996749 1.912663
5.251299 3.458605 -3.96297
5.524908 6.005666 0.3497629
-0.2711426 3.64151 4.800833
5.413955 1.423726 5.660201
-1.34107 3.609508 -4.343809
2.354987 3.334481 -3.730788
2.335922 0.6564444 5.811417
1.878869 3.764844 -3.827173
4.650311 4.273275 -3.337273
2.294238 4.241233 -3.405533
3.405036 3.638689 5.687206
5.413955 2.361714 -2.749781
5.413955 1.069012 1.25581
5.540064 5.800218 0.7964358
3.978842 4.81493 2.895407
-1.494095 5.072328 2.34707
5.413956 0.1999276 -0.2329432
-0.2293725 3.141477 -5.134533
3.875651 3.200918 7.38116
-0.5559947 3.942009 -4.042974
1.640444 0.6575826 4.442821
2.699968 0.4989038 -4.859834
4.215961 3.381778 6.687836
-0.04978347 0.4989038 -5.565347
5.413956 0.005670934 -2.432859
1.307462 0.498902 6.678951
-0.03385976 0.4989036 -4.128948
5.413955 3.224089 0.9636603
5.413955 2.349333 3.601507
0.4656397 4.849497 2.821768
5.968994 3.823242 -3.700574
4.247904 3.783822 -3.786914
0.9193823 0.4989021 6.049949
-0.537366 0.4989038 -5.653765
2.683503 3.167049 -4.093694
-1.088025 4.451104 -2.958441
3.685052 5.010036 2.479771
0.05469489 3.31549 -4.49168
-0.4573828 2.643366 -6.028334
-1.306775 0.4989036 -4.193183
3.082175 5.983963 0.4049991
4.920163 1.297873 -3.730789
2.84202 5.002576 2.495663
4.39912 4.687936 -2.453914
5.672736 3.581498 -4.216105
1.486648 4.864455 2.789904
3.834033 3.26117 7.157587
5.413955 1.63288 6.136192
-0.8121316 5.007598 2.484964
2.31853 1.100996 4.442821
1.867636 3.234551 7.261264
-0.5330714 3.382974 -4.242373
2.335922 0.5056539 6.414236
-0.8258171 5.226981 2.017611
5.413955 4.844054 1.993445
1.100885 4.948173 2.611559
1.552 5.046968 -1.689062
2.573861 3.589974 -4.198125
-0.1861498 2.715549 -3.730789
-1.14808 3.579462 4.932455
1.663039 3.243111 6.139332
3.518421 3.790666 -3.772396
2.092913 3.811379 -4.321257
3.521615 5.840234 0.0008446872
0.9115916 3.7475 -4.343809
1.120692 3.004113 7.070199
1.045558 3.141031 -4.189812
3.631352 2.949902 7.281342
5.413955 3.541572 4.636025
1.508755 4.933232 -1.931356
2.367884 3.979762 4.674579
2.260607 2.199666 -3.730788
-1.537164 5.679772 1.053022
0.6683233 5.701201 -0.2953395
4.665637 0.5902968 6.744514
5.566583 3.47369 -3.90724
5.413955 1.936446 6.619171
2.935616 3.188061 -4.016071
-1.107352 1.497771 -3.730789
-0.3420322 4.410476 -3.044991
2.047904 0.4989036 -4.122206
1.4145 3.228405 -3.867026
2.182131 0.4989037 -4.806321
0.366189 3.264844 4.442822
5.413955 1.497161 3.752175
2.308787 2.701621 4.442821
3.278854 2.967878 -5.775861
4.482481 4.29608 4.000723
5.413955 1.812562 5.069938
-0.6151281 3.023232 -3.730789
4.219249 5.681805 1.048691
4.497224 3.704657 -4.343808
3.737751 3.452396 6.412792
3.719694 4.722306 3.092725
1.746081 4.467796 3.634913
-1.588901 0.1802097 4.442821
5.413955 4.237659 2.802737
6.022593 4.660999 -2.511298
-0.4817322 3.753646 5.205485
-1.011899 3.774901 4.517868
2.53372 0.3687757 -6.061544
3.169937 0.1318105 -6.061543
4.686419 5.238008 -1.282088
3.711936 3.339334 -3.730789
1.438733 5.843788 0.7036152
6.022572 4.569954 3.417284
3.845887 3.281314 -4.617934
1.64951 3.070775 -4.449358
6.026976 5.843821 0.4580488
2.335922 1.923706 6.447354
1.040925 2.800773 -6.393196
4.277 0.4989036 -4.099112
3.725019 3.786523 -3.781183
5.413955 3.173953 1.02656
3.784487 2.984994 -5.712629
3.916526 2.966043 7.218474
-1.032138 4.905133 -1.991215
5.413955 3.965709 3.339485
0.5111892 5.301721 1.85839
2.335922 3.270938 6.004349
5.413955 1.712784 6.612544
1.215894 3.360273 5.683002
0.1105059 0.4989037 -4.078146
2.861113 4.485102 3.598047
4.868308 4.909676 -1.981537
0.7543824 1.213302 4.442821
1.980752 0.4989039 -5.979622
4.839789 0.4989037 -4.57996
4.133854 3.675873 -3.730789
0.1536927 4.981668 2.540202
5.413955 2.942507 2.366203
5.930399 3.586112 5.891985
5.006866 3.359517 -4.329026
2.81522 4.619189 3.312399
0.9180754 5.986764 0.3091177
5.605478 3.166153 7.381159
1.844803 3.44252 5.362665
5.358331 2.702745 -6.743708
5.413955 1.699277 4.18527
2.474805 2.985711 6.744514
5.316283 0.4989038 -5.150033
4.852898 3.401785 -4.172878
2.349075 2.909094 -5.046656
5.413956 0.4277641 -0.4400601
-1.414241 5.6642 1.086195
0.6936539 3.713976 -3.935077
5.413955 3.059353 1.000549
-0.4379803 0.4989037 -4.565923
1.691941 3.951273 -4.023239
0.50173 4.200898 -3.491459
4.206794 1.505015 -3.730789
3.362771 0.4079283 6.744514
-0.131874 0.4989037 -4.200974
0.4040647 3.15801 -3.730789
-0.2603673 3.753646 5.232418
5.413955 0.1634393 3.713991
4.666862 0.4989038 -5.561136
5.413955 1.173786 6.053596
2.803956 5.547123 1.335606
5.413955 1.178967 -1.600791
2.335922 1.243901 6.308522
0.7780619 3.02052 -4.635017
1.206295 0.4989038 -5.745532
-1.59422 5.046399 -1.690274
0.9440506 5.171051 2.136759
0.005101681 3.223278 -4.832336
4.763826 1.842448 -3.730789
3.342349 5.816915 0.7608641
0.3938938 0.7789043 -3.730789
5.744221 3.241107 7.235732
3.032021 0.6910259 6.744514
0.04789662 5.244956 -1.267284
-1.545983 2.702744 -6.61271
-1.055957 0.7149032 4.442821
5.844365 4.465094 3.64067
-0.7398152 5.688565 1.034291
2.078195 1.215381 4.442821
1.463482 4.092198 -3.723023
2.769546 0.8655498 6.744514
1.561895 3.943969 4.750828
1.644566 4.175998 4.256535
1.846187 5.139115 2.204791
2.226715 4.00076 -3.917816
5.413955 0.3916459 4.189973
1.422199 3.176717 -5.004345
3.324052 3.599304 5.840607
2.849011 3.766924 -3.730788
-1.610267 1.659399 -3.730789
2.635041 4.24466 -3.398232
2.335922 0.8773821 6.619881
1.354789 0.4989037 -4.720177
0.7907953 5.513706 -0.6947623
5.026685 3.995297 -3.929455
5.271374 3.807744 -3.730789
5.886195 5.122408 -1.52835
2.017706 4.921604 2.66816
1.547337 5.581614 1.262129
5.413955 0.3464031 2.967783
1.803668 3.577599 -4.224377
1.818257 5.996974 0.3772815
3.969104 0.4989039 -5.653146
3.443166 4.887252 -2.029307
-0.8958268 5.936239 0.5066657
-1.137251 5.751976 0.8992045
2.247007 3.722616 4.442821
2.931294 3.536215 -4.312166
-1.597942 3.199028 -3.730789
5.438798 5.371014 1.710775
3.522138 4.130132 4.354244
5.709194 3.962984 4.11586
-1.68327 2.78731 -6.44293
3.857612 0.4989039 -5.967979
-1.611308 2.738157 -5.678148
5.743915 5.064115 1.769153
2.434076 5.405629 1.637032
1.31885 3.185879 -4.9705
5.004258 2.99563 -5.673335
-0.7685804 5.965549 0.2678053
5.413955 0.530863 0.1250467
5.413955 3.575504 4.939801
5.413955 2.523338 3.10114
0.2883091 2.684181 -5.877554
-0.4625579 0.4989037 -4.591679
-1.315618 5.295155 1.872378
2.454244 5.40155 -0.9336922
5.413954 3.684925 -1.550259
-0.1183886 4.6142 -2.610996
1.066228 1.597906 -3.730789
1.62327 4.770345 -2.278356
-0.2312579 2.954046 -5.826961
5.573985 3.879557 -4.176016
-1.605157 0.4989037 -4.592237
0.9668318 3.334226 -3.730789
2.322555 0.4744511 4.508744
0.7336481 0.4989037 -4.527274
4.438859 0.4989037 -4.825255
5.413955 2.300062 -0.3461169
2.825642 2.208699 6.744514
1.663078 4.925065 -1.948755
5.413955 1.602723 -1.274572
4.925602 2.63559 -6.057063
1.974249 4.121223 -3.661191
2.276494 2.677271 -3.730789
5.413955 4.124596 3.505117
-1.522161 3.547966 4.999266
-0.7454135 5.706485 -0.2840831
5.413956 5.233037 0.2244048
3.485432 4.353544 -3.166274
5.413955 1.25048 4.564688
0.6121004 4.651177 -2.532222
-0.8758898 2.858306 -6.180651
4.660747 5.946053 0.2215776
5.413955 0.9005693 0.328117
0.7305579 0.4989038 -4.896902
5.413956 0.1727292 2.06849
-0.1542583 3.014336 -3.730789
3.172117 5.671831 1.06994
5.413955 1.79782 4.260529
0.8359149 3.932627 -4.062961
1.045885 2.105883 -3.730789
5.430015 2.569439 -6.301442
5.413955 2.457865 -2.896672
1.418383 3.772446 -3.811045
1.762139 0.4989021 6.565517
5.413956 0.9503753 -1.14112
5.413955 1.381211 0.3223642
4.774121 3.491668 6.259834
-1.309552 3.475745 -3.899648
2.714297 1.003325 -3.730789
0.7999009 0.4989023 4.939792
5.265785 1.891712 6.744514
5.668665 3.468968 6.348245
-0.7429273 5.783686 -0.1196192
1.173536 3.392901 5.555924
4.553838 3.382956 -3.730789
5.413955 4.169724 1.498927
5.413955 0.9579649 5.974321
5.27217 3.264599 -3.730789
1.705331 3.365956 5.66087
-0.5256554 5.414371 1.618408
2.512121 5.456376 1.528927
3.08498 5.277999 -1.196893
3.38128 2.76179 -6.53721
4.637096 2.575546 -6.561449
5.413955 2.541374 2.349488
5.942755 3.515713 6.166178
5.90647 5.228009 1.420007
4.840687 5.56876 1.289512
3.101903 4.226339 4.149292
0.8235333 2.702744 -6.701292
2.69708 5.238965 -1.280049
4.081626 3.554089 -4.274249
-1.029757 2.731346 -5.703311
-1.241746 3.64154 4.442822
1.731312 3.318658 5.845089
5.877291 3.689252 5.490272
5.042239 5.141031 -1.488678
6.026977 3.973497 4.133757
3.988895 2.993983 -4.733053
0.8664614 0.6087485 4.442821
2.415334 3.676926 -4.013673
5.413955 1.964212 6.535977
4.905566 0.4989038 -5.721752
-1.645656 5.449467 1.543646
3.940663 3.339224 6.853578
5.413956 0.8638694 -1.407248
1.082488 4.535556 3.490562
2.473219 2.699561 -5.820734
2.687203 2.862535 -5.218659
5.264386 5.710226 0.9881446
5.950547 5.255388 1.361681
2.352956 1.605343 6.744514
-1.458773 1.734038 -3.730789
4.289796 0.8323281 -3.730789
1.040883 2.84663 -5.277419
5.398981 5.054214 2.385659
-0.7675509 5.461792 -0.805355
3.127861 5.96159 0.2549871
5.892779 5.999347 0.3398061
3.12558 0.4989038 -5.457298
5.413955 2.867125 0.3783666
3.207791 3.197721 -4.926749
-1.334445 0.7573109 4.442821
1.815975 1.348818 4.442821
5.646203 4.865951 2.19134
2.710025 4.495272 -2.864349
4.472923 0.6865236 6.744514
4.369052 3.352226 -4.355962
5.413955 3.955989 -1.780469
1.533276 3.985127 4.66315
0.4443069 0.80259 -3.730789
-0.7744747 4.494211 3.578639
5.413955 0.9667506 -1.251002
0.7265618 0.4989036 -3.928935
2.172559 2.623702 -6.10098
5.031666 5.091762 2.305669
1.358373 3.867602 -4.201485
-0.6142292 5.971831 0.2811887
1.218227 3.818959 -4.305109
0.4614486 1.686133 -3.730789
1.213759 2.950883 7.277518
-0.4166286 4.010044 -3.898037
-1.605422 5.949055 0.4793659
0.2768369 1.276028 -3.730789
3.065655 4.179324 -3.537418
5.644088 5.085384 2.319256
5.413955 2.905471 -2.053655
0.8968597 2.869575 -6.139021
3.868569 0.05964572 6.744514
-0.005441785 2.834299 -6.269341
5.413955 1.093405 0.4892743
5.82805 3.165109 6.443141
5.413955 0.7221296 -1.278917
5.413955 0.5015548 1.665994
0.9282124 5.539159 -0.6405392
3.873461 5.551365 1.32657
0.4819825 2.507158 -6.531526
5.413955 0.4346848 0.8873355
1.375534 0.4989038 -5.465811
0.2414253 5.377603 1.696738
-0.7534572 3.633135 4.818597
0.06512618 3.432833 -4.058178
2.878744 3.009668 -5.621474
5.413955 4.258162 -1.559329
3.009948 4.288742 4.016355
5.509361 4.578498 3.399083
4.30963 2.143031 6.744514
5.735947 3.86819 -4.200233
0.1485958 4.788591 2.951518
5.413955 1.803886 2.456562
2.258334 2.972978 -4.810649
4.176816 4.03615 -3.842424
0.2567861 5.813127 0.7689354
1.370832 0.4989021 6.24337
5.184233 4.501917 3.562225
1.959294 0.4989038 -5.52837
2.586422 3.445742 -4.010489
2.335922 2.839175 5.917793
6.007931 2.716637 -5.757649
5.413956 0.03555552 -1.289203
1.573833 3.263233 -4.68473
-1.051078 3.619014 -4.343809
-1.573869 3.524634 -4.343809
-0.9134091 0.4989038 -5.873192
3.328378 0.5669454 6.744514
6.021649 3.550016 -4.343809
2.570815 2.501611 -3.730789
5.362248 3.686864 -4.343809
5.674075 5.469487 0.9055825
1.80571 2.914216 -5.027734
5.413956 0.8014986 -2.89712
3.242855 2.975115 -5.749123
4.518207 4.53686 -2.775755
2.335922 2.22074 6.224779
5.413955 1.396475 2.86919
1.856912 3.495936 5.154615
3.625332 2.769424 -3.730789
4.067604 0.3054082 6.744514
5.413956 0.6007904 -0.4754864
6.003105 5.580601 1.26429
5.417585 5.167415 1.549834
-1.30195 3.068571 -4.457504
1.017754 5.287847 1.887947
5.348328 5.124755 2.235383
5.413955 1.59653 -1.847874
-0.4618483 3.129848 -4.231124
5.413955 4.376291 1.034084
4.232416 3.327608 -4.446909
2.068778 5.097842 -1.580685
4.791957 4.634558 -2.567626
3.078072 3.118829 7.381159
4.990162 2.789136 -5.489816
-0.2665539 2.540381 -3.730789
5.413955 2.812869 5.848231
4.622247 3.517251 6.160188
5.413954 3.608171 -1.773001
-1.489152 4.382161 -3.105312
0.6576961 4.131029 4.352332
5.413955 2.844696 -2.096314
1.080083 3.462378 6.373913
-1.166954 5.388481 -0.9615306
1.093078 3.394256 -4.200694
-1.380016 3.092172 -4.370314
5.413955 2.098073 2.498496
-1.645671 1.858283 -3.730789
0.9472088 5.961412 0.2546037
5.413955 3.685314 0.140998
2.750757 4.814725 -2.183812
4.591619 3.45498 -3.976358
-1.08937 1.868255 -3.730789
2.619857 3.282896 7.072969
5.413955 1.12012 0.4508557
0.7493176 3.908688 -4.113957
5.413955 4.658734 0.5375528
1.093964 0.4989024 4.561823
5.413955 3.693513 1.300614
0.01589799 3.07687 -4.426841
1.660212 0.4989038 -4.96971
5.74699 5.468071 -0.7919799
5.413955 0.9001687 5.488652
5.850454 4.967474 -1.85841
3.01013 0.4989038 -4.835453
-0.3834891 3.883478 -4.167664
4.463249 5.052163 2.390028
0.812135 4.475086 -2.907351
0.4690825 3.67167 4.442822
-0.253537 3.792955 -4.343809
5.413955 3.181815 4.30562
3.449689 3.113851 -5.236592
-1.083753 3.822495 5.009605
4.703768 3.774386 5.158686
5.413955 2.464369 4.335155
2.089959 3.235169 7.258859
5.413955 3.642196 -0.4857044
0.5649807 5.646462 1.123981
0.02517253 0.4989037 -4.545683
-0.6901639 3.192099 -4.001154
2.715791 3.128804 -5.181352
4.402268 4.042195 -3.829546
2.335922 2.399368 5.866104
2.829728 4.311633 -3.255557
-0.2803959 3.344199 -4.385615
-0.7727957 4.204233 4.196384
2.394604 2.976559 -5.74379
5.413955 1.011073 2.975867
2.442611 4.379749 -3.110448
1.785194 2.860794 -6.171461
6.026977 5.110709 2.02635
1.687885 1.167698 -3.730789
5.283212 5.732989 -0.2276204
5.413955 1.753427 2.256712
5.413956 5.446802 0.2419494
5.681352 5.195853 2.083923
1.591986 0.4989038 -5.578579
5.413955 4.392572 1.855471
5.413955 1.437026 5.829782
5.413955 2.287867 -2.017969
3.94774 0.481519 -3.730789
0.03115416 5.546558 1.33681
2.124654 2.757569 -5.606433
5.413955 2.352178 2.851061
4.436794 5.287202 -1.177289
4.588777 3.413193 -4.130734
2.212986 5.045409 -1.692382
1.652286 5.544668 1.340836
1.745672 4.157151 4.296685
1.60963 0.4989039 -5.947531
5.413955 1.91368 0.9449045
-1.067101 0.4483319 4.442821
5.413955 2.907085 1.469284
3.768642 3.011474 7.041526
5.413956 0.05278363 0.3271914
5.413955 0.8899736 3.581346
3.079053 3.067132 -4.462818
0.5142044 3.43102 -3.730789
5.413956 0.5141877 -2.614195
4.591877 3.518105 -3.743159
5.131055 3.676055 5.541674
2.072951 0.4989036 -3.772092
4.142832 0.4989039 -6.004759
4.911099 4.243808 4.112077
0.7929584 3.194192 6.329868
4.188373 0.4989038 -5.045232
-1.517829 3.262448 -4.687631
1.504604 3.780754 -3.793421
-0.7520428 0.4526154 4.442821
1.325925 3.382222 5.597516
5.37637 4.26596 -3.352858
-1.16433 4.429382 3.716746
1.294942 3.794962 -3.763281
4.0204 4.830203 2.862873
5.413955 2.514868 0.4381724
5.413955 1.4136 -1.162535
5.413956 0.5981581 0.6008528
3.422018 2.620042 -6.114501
6.026976 4.963204 2.527765
3.209574 3.283075 7.072272
1.795959 4.845044 2.831255
1.554122 5.115179 2.255782
2.169488 5.699418 1.011171
5.413955 2.319245 1.859046
5.857866 4.257055 4.083857
3.225147 3.363688 -4.313622
0.9584343 0.7930846 -3.730789
5.773069 4.601111 -2.043467
4.55466 0.4989038 -5.266778
2.121894 3.488751 -3.851601
1.205436 4.023634 -3.869086
0.5387397 5.452921 -0.8242537
3.399544 6.000214 0.3380384
4.753695 0.4989037 -4.309322
3.486001 3.208276 -3.94139
5.413954 0.7175567 3.795893
4.274429 2.639408 -3.730789
4.586967 2.948483 -4.901143
-1.504699 1.336344 -3.730789
4.063081 4.169263 4.270883
2.69775 2.98929 -5.696754
3.680782 0.4989038 -4.950839
4.823544 3.258773 7.166926
5.413955 2.129813 -0.8065741
6.026977 5.593656 -0.2103121
1.968196 0.4989021 5.97529
5.413955 2.20361 3.404032
5.225533 0.4989037 -4.174719
-0.7221315 5.691673 -0.3156371
5.20719 3.96206 -4.00026
2.711962 4.867144 -2.072145
3.113735 2.761713 -6.537493
5.413955 2.48808 -1.789553
1.707808 3.568003 5.962519
5.413955 3.222143 5.355898
-0.149224 2.702744 -6.646157
5.184178 4.198769 4.208025
1.570906 2.907339 -5.999509
-0.190957 2.99036 -5.692805
1.069294 1.427368 -3.730789
5.413955 2.489585 2.072556
3.409028 5.120315 -1.53281
4.653322 5.255095 1.957719
6.026976 4.248752 -2.958341
4.46273 4.592716 3.368793
0.4004681 3.083055 -4.403993
6.026977 3.593385 5.023996
3.65536 4.246728 -3.393826
-0.7568207 0.4989038 -5.065812
4.421672 3.601321 -4.174056
1.137434 0.4989023 5.523365
5.082621 3.985888 -3.9495
-0.9330521 3.49606 -3.730788
1.041303 3.681634 -4.003686
-0.5814212 2.769338 -3.730788
4.167725 0.4989036 -4.034476
-0.4179292 5.26113 -1.232828
-0.2124889 3.636911 -3.730788
4.769384 3.729162 5.33483
4.309699 5.677283 -0.3462924
2.335922 1.86927 6.71431
2.78203 1.727457 -3.730789
5.413955 1.878801 0.8812038
0.4357343 0.4989039 -5.880678
4.308865 2.997077 7.097601
-0.125399 5.277613 1.909747
0.8962512 5.756743 -0.1770164
0.3859811 3.239823 -3.824846
1.659669 0.7847117 -3.730789
2.635156 4.024684 -3.866849
5.413955 3.205725 1.916001
5.682513 4.628513 3.292536
2.663157 4.966864 2.571742
0.3435482 4.277344 -3.328605
2.47365 2.171396 -3.730789
-1.140632 2.754749 -5.616854
-1.232121 0.4989036 -4.174085
-1.679572 2.648169 -6.010593
2.44821 2.958319 -4.864806
3.455042 5.967864 0.2727382
0.9666133 3.443481 5.358919
5.413955 3.301457 1.094092
-0.8514025 3.827757 -4.286366
5.413955 2.470639 4.318255
5.413955 3.68883 -3.384176
5.413955 3.533644 -0.1581622
5.413955 3.515225 2.820123
4.625637 5.624674 1.170397
5.413956 0.1199333 0.07032764
3.811266 2.970455 -5.76634
1.710797 0.3956519 -6.061543
1.112192 2.805176 -5.430561
-0.2201088 3.747903 4.442822
1.967381 4.345424 -3.183573
1.878993 0.4989038 -5.040742
-0.8736219 4.966746 -1.85996
-0.4747094 3.501406 -3.730788
3.028169 2.651284 -5.999083
-0.1744149 2.985908 -5.709253
4.721003 2.740802 -3.730789
5.413956 0.582324 -3.71578
1.204829 4.192552 -3.509239
4.304982 4.167363 -3.562899
5.138392 3.013365 -4.66145
1.077312 0.4989021 5.775894
2.3246 3.079803 6.775393
0.1933074 4.734675 3.066376
0.3672706 3.20427 -4.902556
-0.5608525 4.266868 -3.350923
3.694982 5.858793 0.04038194
3.091683 0.5095803 6.744514
5.990924 5.262913 1.345651
5.857088 3.169715 -5.030211
2.533701 3.496533 -3.730789
2.355822 1.149983 6.744514
5.413957 0.0147334 -5.547779
2.422562 4.849256 -2.11025
3.23016 3.634151 -3.730789
5.413955 1.769035 2.111211
1.254001 2.999402 7.088547
2.970809 4.371252 3.840582
5.08628 5.850767 0.02328306
2.958642 3.080148 6.774052
1.03627 5.559833 1.308532
-1.288414 0.4989038 -6.036996
3.317633 3.068825 -4.456564
-0.7637043 2.861771 -5.221481
3.948129 4.811628 2.902443
5.413955 2.520728 -2.986949
1.919277 3.510765 -3.770275
0.5436909 5.292335 1.878386
0.9290053 3.533422 -3.730789
1.489196 4.535154 -2.779387
5.413955 3.630276 3.686016
5.818452 5.617524 0.1218142
5.413955 4.061676 -3.004092
3.793425 4.980434 2.542832
2.654926 2.767338 -5.570345
5.94486 4.204947 -3.482833
3.811089 2.299264 -3.730789
5.413955 3.309126 4.737764
-1.106603 0.4754931 4.508744
5.754751 4.171165 -3.554801
2.600351 3.124631 -4.250401
0.2568712 5.48173 -0.7628826
5.413955 2.824647 1.930364
4.972682 5.831713 0.7293404
1.416239 3.160413 -5.064577
1.452058 4.47547 3.618564
-1.699576 3.735908 -3.888554
4.397125 0.8062567 6.744514
3.538167 2.745307 -3.730789
-0.3352295 5.184152 2.108849
5.413955 1.059222 6.581567
5.413955 5.152911 -0.6677539
1.66304 0.4989039 -6.079471
5.413955 2.507254 3.388707
5.303208 3.782937 5.125382
5.413955 1.508684 5.468595
5.413955 3.5364 1.197978
0.3451903 4.512022 -2.828667
0.3131402 5.924279 0.1798875
5.429646 4.888746 2.738157
5.413957 0.08702239 -3.532945
-0.1677282 3.183147 -3.730789
5.413955 2.341655 3.505423
5.485662 3.974417 -3.38055
3.153547 2.971893 7.195688
0.8396146 5.824204 0.7453372
2.314065 4.289843 -3.301979
5.283411 3.439071 -3.730788
4.613787 4.197885 -3.497879
2.966701 5.821319 0.7514848
-1.290427 5.043859 -1.695685
5.413955 1.732483 5.511597
-1.613282 5.378249 1.695361
-1.687999 3.14565 -4.172748
-1.358576 5.484008 -0.7580295
-0.1685402 3.540118 5.055841
1.50384 3.593148 5.864584
1.823393 3.639413 -4.093249
1.100792 3.096381 -4.354762
1.476197 2.811615 -6.353141
4.660371 5.586181 -0.5403675
4.016433 3.580014 -4.219255
-0.1113764 4.935186 2.639225
5.413956 5.098309 1.33222
5.19424 3.15762 -4.128527
-0.8222464 4.065859 4.491163
5.413955 2.519765 0.4514117
2.584455 2.538315 -3.730789
-1.306602 3.586277 -4.205967
1.659658 0.4989021 6.699543
5.413954 3.603805 -3.25742
0.1757826 2.774655 -5.543315
2.848668 3.591923 5.869356
-0.9633949 4.574944 -2.694622
5.820553 3.320206 5.83906
-0.8906714 2.85561 -6.19061
2.497476 3.257366 -4.706406
3.844502 0.1177819 -6.061543
2.741458 2.202157 6.744514
3.589138 3.337664 -4.40976
1.917556 3.417064 -4.116434
0.7291211 2.726091 4.442821
2.400437 4.014169 4.601281
5.434017 3.350013 -4.364138
1.830265 3.176371 -3.730789
1.303306 3.519071 -3.739587
5.413955 0.4839863 2.729833
-0.592629 5.574929 1.27637
2.425527 0.4989039 -5.915557
5.413954 3.861847 1.217162
1.028562 1.46959 -3.730789
5.375323 4.089711 -3.728322
2.936469 3.142681 -4.183717
5.413955 1.702593 0.4601761
2.812408 0.5303788 6.744514
1.539675 3.104156 7.381159
-0.7503486 0.4989039 -5.986623
0.9691853 2.782967 4.442821
5.413955 2.169145 5.228384
3.13034 0.4989039 -5.730569
-0.02334547 5.894578 0.1166147
5.690709 4.279029 -2.730216
5.160113 4.299682 -3.281019
3.847554 2.882275 -6.0921
1.973566 4.10746 -3.690511
0.9364514 5.410209 1.627276
-1.064571 3.10529 -3.730789
4.355923 1.612274 -3.730789
4.182522 3.51459 6.170556
2.4903 5.114403 2.257437
5.413955 1.391098 1.585447
5.413955 2.294976 3.409141
-0.4075881 4.219545 -3.451735
1.233802 5.546386 -0.6251441
-0.3710413 2.40542 4.442821
5.147239 5.713174 0.9818652
5.413955 0.9925908 3.52599
0.4224104 0.7321556 4.442821
0.6046 1.951407 -3.730789
3.221416 3.63622 -4.100024
0.8342337 2.870184 4.442821
1.562571 3.307384 6.977589
5.413955 3.328043 -2.226889
2.335922 3.243084 5.543537
4.651349 2.855124 -6.192404
5.472219 3.620906 -4.132509
0.435931 5.451588 -0.8270952
-1.041409 2.552286 -6.364811
5.413956 0.8013678 -1.829062
0.1767955 5.472646 1.494267
-1.079561 5.757552 -0.1752934
2.808456 4.089668 -3.728413
0.5902077 3.699279 -3.966256
2.335922 3.003933 5.931573
5.010658 2.182389 -3.730789
5.511552 5.75841 -0.1734659
1.419315 3.175645 -4.061939
5.413955 3.47205 -0.857357
5.413955 2.297433 5.961853
5.413955 3.44341 -2.431777
2.816728 5.696184 -0.3060269
2.118835 3.486923 5.189719
5.765582 4.33488 3.918065
5.413955 1.832074 1.114504
5.413955 3.169374 0.9951661
-0.1619852 0.4989038 -5.29717
5.413955 0.8001226 6.543907
5.913836 5.060775 -1.064236
5.413954 1.666026 1.836137
4.591285 1.565634 -3.730789
1.72037 1.29078 4.442821
-1.666873 3.817747 5.019721
3.366538 5.493969 1.448841
6.026976 3.815086 -3.761868
5.389296 3.301315 -4.544042
5.72046 5.440371 0.9676104
5.413956 1.580429 -3.577811
2.891871 3.001832 7.079082
4.864205 0.08992507 -6.061543
-1.066383 5.152579 2.176109
2.383796 3.231193 -4.803096
-1.688555 1.837715 -3.730789
-1.386818 2.52135 -6.479098
4.600946 2.98214 7.155778
2.335922 3.333515 4.570689
-1.245398 0.4989038 -5.124082
2.067136 4.01935 4.590244
3.673671 3.391664 -4.21027
0.750312 3.746378 -3.866344
1.231809 2.521451 -6.561448
4.061338 4.778045 -2.261952
-0.1656167 1.462209 -3.730789
-0.536745 4.825914 2.872007
5.413955 3.490817 0.1167417
3.511925 5.061458 2.370225
0.4417487 0.02592343 6.744514
5.270785 5.934677 0.5099937
-0.8035555 5.020528 -1.745388
4.088015 2.737966 -5.678854
1.08403 3.347734 5.731844
0.5742863 4.527556 -2.795574
5.413955 1.911834 -1.467417
-0.3924496 2.54267 -6.400335
5.344255 1.38468 6.744514
5.413956 0.5311907 1.168606
3.578273 5.440263 1.563253
-1.255408 3.119918 -4.267809
5.65996 4.004181 -3.316253
3.683977 3.025022 -5.564753
5.413955 3.054359 2.734348
4.625033 0.4707246 6.744514
1.58118 2.783346 -5.511207
4.069639 4.133536 4.346992
1.544951 5.001944 -1.784977
5.413955 3.252666 1.083986
-1.348648 5.092405 -1.592268
2.40336 5.29685 1.868767
5.873415 2.9274 -5.925397
0.9955896 5.499341 1.437398
2.661186 2.702744 -6.755834
-0.6351306 5.530516 -0.6589516
0.8012385 5.371475 -0.9977592
5.413955 2.249531 4.513668
5.413954 0.6221195 5.308858
4.768435 3.396749 -4.19148
5.170248 5.895627 0.5931848
2.728792 5.043983 -1.695422
5.413955 3.070871 -2.741395
-1.510388 4.830843 -2.149477
2.2698 3.309137 4.442822
5.413956 0.4884529 -2.273945
-1.31363 4.489823 3.587988
0.2892703 4.559268 3.440049
5.413955 1.548867 1.580623
-0.8318801 3.810027 -3.731325
1.586828 4.978598 -1.834713
4.106468 3.450502 -3.9929
5.413955 0.5375174 1.156574
1.201747 3.024882 7.381159
5.092565 5.186196 2.104496
2.329105 3.417709 5.4593
5.263976 0.3310979 -6.061543
3.007867 4.755909 3.021142
4.148961 3.339371 6.853008
3.255506 2.884702 -6.083136
0.02099693 4.464885 -2.929083
1.899394 4.781154 -2.255329
5.222861 2.735459 -5.688115
