2.186134 0.7609227 -3.730789
-0.7189193 3.307979 -4.519424
-5.023967 4.044704 4.536231
-0.9204955 5.556708 1.315187
-6.348306 4.316991 3.360965
1.378221 0.4989038 -5.530869
-5.618819 3.56775 4.442822
-0.5959556 4.281185 4.032453
0.2633204 2.920344 -5.951466
-1.60025 0.5840129 4.442821
-5.782723 2.72101 -1.220603
-6.133909 3.48484 -3.866049
-0.0584611 1.855131 -3.730789
-1.762271 2.068086 -3.730789
2.265517 2.7563 -6.55749
-3.927285 2.620478 -6.11289
-5.847924 0.4447938 3.837182
-1.978273 3.195978 -3.986822
1.473658 0.8821712 4.442821
-4.269529 5.532365 1.367044
0.7628333 0.4989039 -5.853086
-1.301707 3.330519 4.442822
-3.125954 3.136212 -4.207616
-2.617119 4.575069 3.406387
-5.36268 4.128706 4.357282
-5.782723 0.8082004 0.9969311
-5.782724 5.079545 0.6485985
-4.732528 3.508176 -3.779837
-3.442143 4.589063 3.376576
0.2413743 4.27904 -3.324991
-2.74586 0.1758502 4.442821
1.505567 2.819434 4.442821
-6.127658 5.522405 0.7931308
-5.551054 5.197295 2.080851
-6.362894 5.710121 0.3190514
-2.945699 3.942066 -4.042852
-4.417827 5.424269 -0.8852923
-5.782723 1.283728 -3.209229
2.335922 0.7169354 6.556826
-0.217603 3.623407 4.839233
-5.782724 4.229114 1.043001
-5.688159 0.4989038 -5.29761
-2.720994 0.4351939 4.508744
-1.836024 3.468892 -3.924963
-1.378285 5.903727 0.1361044
-5.468091 3.753644 5.321239
-2.096174 0.4932083 4.508744
2.349321 3.204319 -4.902374
-6.041983 5.960968 0.2580468
-3.93247 5.658492 1.098355
1.137488 4.441486 3.69096
-4.79039 5.693405 1.02398
-4.834901 4.70555 -2.416391
2.56758 3.72982 5.332266
-1.200286 2.617136 -6.125238
-5.927185 3.067806 -4.460328
-0.9603534 5.520333 -0.6806451
-3.150157 0.4385963 4.442821
1.278124 0.3986524 4.508744
-1.170217 5.30132 1.859245
1.75285 5.540953 1.34875
-3.962882 0.5053912 4.508744
-2.045159 1.267674 -3.730789
-3.646638 0.5172664 -3.73079
-4.468746 0.6572379 4.442821
0.5670714 2.751651 -5.6283
-0.6295421 3.601877 -3.730788
-5.782724 3.26631 -0.8925781
-5.782723 4.353544 0.3473473
-4.472438 4.980142 -1.831423
-2.024066 3.987677 -3.945688
-5.609843 4.875004 -2.055401
-3.460834 4.545506 3.469366
1.079148 4.440608 3.692832
-4.200251 3.976352 4.681843
1.37111 4.461172 3.649024
-5.782723 1.121329 -2.007425
2.532696 4.593462 -2.655173
-3.748813 3.11308 -4.293071
-5.782723 3.058155 -0.6261717
-2.322301 0.4400474 4.442821
-1.524325 4.20555 4.193578
-2.059412 4.525344 3.512316
-5.782724 1.133316 4.035613
-2.038844 4.437422 3.69962
-5.60204 2.949425 -5.844029
-2.821959 3.833454 -4.27423
2.012598 3.995059 4.641992
2.174781 5.976245 0.286499
-6.190607 5.612964 1.195345
-5.782724 4.422801 -0.6407163
2.153214 4.168806 4.271855
2.640882 2.504975 -3.730789
-1.71227 2.995547 -4.727273
1.99589 0.4989036 -3.996549
-5.782724 3.44797 3.797015
-5.782724 0.7380577 -0.9519932
2.335922 0.7316169 6.485967
-0.15766 3.271516 -3.730789
-5.782723 1.176918 -1.561383
-5.12042 2.414302 4.442822
0.6683307 4.045637 -3.822215
-0.4065494 0.4989039 -6.09437
-5.782724 0.1566571 -0.5098985
-1.137649 0.4989036 -3.922202
2.112391 3.471303 -3.730789
-1.973784 5.476934 1.48513
-4.156481 2.76021 -5.596681
-2.127604 0.669511 -3.730789
0.8143778 5.421098 -0.892047
2.335922 2.947797 6.1063
1.783771 5.325169 -1.096406
-3.018192 2.567132 -6.309966
-1.552426 5.348059 1.759675
-3.558827 0.6666144 -3.730789
-3.711977 4.400602 3.778057
0.3510447 1.945842 -3.730789
-5.079206 3.360224 -4.326416
-0.4716241 3.142543 -3.730789
-5.782724 3.176886 0.8246954
-4.752903 3.065702 -5.414469
-1.258603 1.752566 4.442821
-5.782724 0.3836938 -2.964595
-1.395035 0.4989037 -4.773795
-5.782723 2.914395 1.191738
-0.5147877 3.803279 4.442822
-6.21764 4.156266 4.298568
-5.259638 4.674106 -2.483376
-5.05546 4.290449 -3.300687
-5.782724 0.9758326 2.767742
-1.13066 0.6986463 4.442821
-5.782724 3.695601 -2.287379
-1.775013 3.780544 -3.793868
-5.846692 2.797844 -6.404015
-1.020626 4.100666 -3.704985
-1.310881 0.1213633 4.442821
1.096423 3.340259 -4.400173
-5.782723 2.439442 -2.24153
-5.097862 0.4989037 -4.652404
-1.395995 2.930183 -3.730789
2.053825 0.4989038 -5.121071
1.123882 2.955864 -5.82024
-1.381175 1.372419 -3.730789
-5.888388 5.226254 -0.7123958
-1.796868 4.929683 -1.938916
-3.755597 3.341377 -4.396045
-5.682369 3.034692 -4.58266
-3.442954 5.93436 0.5106698
-1.947481 0.4989038 -4.773538
-5.782723 1.885599 2.164121
-0.4423034 5.31803 -1.111614
-3.555087 3.244024 -3.809325
-5.782724 4.677178 1.659117
-6.100048 4.475226 3.619085
2.37055 2.885132 -5.135179
-2.153977 2.920403 4.442822
1.111083 3.923705 -4.081966
1.247609 1.907251 -3.730789
0.04127741 2.967319 -4.831557
-0.9086897 5.943542 0.2209224
0.8135558 3.471487 5.249843
-2.696367 3.135445 -5.156819
2.607688 2.507941 -6.528637
0.9973569 4.569257 3.418767
-6.292884 3.447666 -4.003381
-3.606154 3.167291 4.442822
2.306392 3.061833 6.845385
-1.873419 3.423521 -4.092581
-5.969989 5.2257 1.425606
1.711469 3.396443 4.442822
0.06692243 5.522648 1.387745
-1.074137 2.525105 -3.730789
-6.211339 5.072635 -1.634383
-2.816511 3.689904 -3.986144
-4.825676 0.4989037 -4.62602
-0.3597597 3.784702 4.497077
-6.394574 4.091226 -3.129688
-6.395745 5.670538 0.8830243
-3.610994 3.470407 -3.919367
1.556345 3.382719 4.442822
-2.20424 5.238816 1.992397
-2.580329 2.928185 -5.922499
0.8545144 5.58873 1.246971
-4.252279 2.926088 -4.983878
-1.06174 2.716218 4.442821
-6.133485 5.502123 -0.1243333
-5.782724 1.969829 1.332998
-5.782724 4.665555 -0.8835225
1.72409 0.2283012 6.744514
0.9867049 0.4989022 5.370186
-6.358031 4.017274 3.999413
-5.697171 4.333622 3.920746
-5.782723 0.4144883 -0.96823
-4.585656 3.983148 -3.955336
-0.4079981 4.273926 -3.335887
-6.019132 4.275168 3.451457
-5.063035 2.353499 -3.730789
-5.775354 5.704753 -0.2877711
-5.051796 5.119849 2.245834
-4.488697 2.836341 4.442821
0.8424603 3.239807 4.442821
0.720428 3.359641 4.442822
2.335922 2.953517 5.688598
-5.782724 0.2406789 3.455353
-0.3470659 4.571945 3.413043
-4.973556 3.727745 4.442822
-3.621319 3.443947 -3.730788
1.514518 3.922454 4.796664
-3.842232 2.633783 -6.063735
-5.475164 2.901339 -5.075308
-5.782724 1.565146 3.632882
-5.782724 0.5119371 -3.145738
-0.8134645 3.681734 4.442822
0.5230809 3.256241 4.442821
-1.787062 3.332487 -4.428885
-4.105664 5.298546 1.865153
1.137648 3.778871 5.14122
-4.93716 2.694997 -5.837595
-5.782724 3.865865 -2.392786
-5.350089 5.692346 1.026236
-4.919 3.535218 -4.314281
-5.782723 2.672518 0.8885713
1.928913 3.017731 -4.645321
-1.167756 2.41122 4.442821
-5.782724 3.334323 3.671134
-5.392815 3.716242 -4.343809
-4.238526 3.053097 -4.514669
-6.228525 4.532434 3.497214
2.2776 5.764803 -0.1598462
-1.693163 4.576239 3.403894
2.047091 0.4136714 4.508744
-4.309637 3.254731 -3.769771
1.307488 1.792876 -3.730789
0.7686019 3.180662 -4.98977
-5.699104 3.514462 4.442822
-1.404498 2.835589 -6.264573
-1.352746 2.754155 -5.619045
-5.100114 4.579733 3.396451
0.3693074 3.30329 -3.730789
-5.065609 5.46628 1.507827
-0.05627275 4.681905 3.178793
0.5589941 5.899997 0.1281596
1.15093 0.4989038 -5.234444
-4.720754 4.161115 4.28824
-1.558913 2.703664 -3.730789
1.050522 3.079269 -4.41798
-5.782724 0.2915151 -0.8647721
-5.782724 2.907553 0.1406431
2.487844 4.661746 -2.509706
-5.782724 2.740441 3.351536
-4.996775 4.1148 -3.674873
2.530489 4.73313 3.069669
-4.747823 3.017975 -5.590787
-3.585258 3.865129 -4.206753
2.335922 0.4963308 6.412915
-4.446491 4.084207 -3.740048
-5.782724 2.423385 3.056972
-4.327479 3.200485 4.442822
1.891237 5.293537 -1.163792
-5.782724 2.201988 3.150503
-6.348432 3.813905 4.432694
2.249252 5.090534 2.308285
-3.801887 0.9464274 -3.730789
-2.700764 3.059217 -4.492055
-2.100199 5.24957 -1.257456
-4.437864 0.4989038 -5.38221
0.1551163 3.790317 -3.773136
-1.583425 5.955276 0.2459193
-0.2802875 5.75068 -0.1899326
-6.395745 3.912064 -4.086488
-5.782723 2.040862 -1.046332
-5.782724 3.495408 1.470583
0.52148 3.797893 4.469095
-1.431903 0.4989036 -4.000976
-4.400331 5.355464 1.743901
-2.428448 4.673964 -2.483679
1.429319 0.4989038 -5.069304
-3.67538 2.557372 -6.346024
-0.4381385 5.457789 1.525915
-5.782724 4.690733 0.2998998
2.487425 0.6528687 6.744514
-0.7878547 5.711789 -0.2727829
-2.216408 1.101489 -3.730789
-4.267109 4.478717 -2.899618
-5.073815 2.905724 -5.059106
-0.0196898 5.033667 -1.717398
0.1277127 3.22332 -4.832178
-6.328428 2.982793 -4.774391
1.822809 3.487211 6.277192
-5.782724 3.848044 4.203164
-5.340291 4.924119 2.662801
-2.40337 2.851012 -6.207595
-0.5828077 4.892113 2.730985
-3.431858 3.600149 5.055841
-2.378232 4.152752 -3.594024
-5.782723 0.07889774 -1.13359
-5.578591 3.671509 -4.025164
-2.114285 0.4640183 4.442821
2.597049 3.297081 7.017721
-5.908258 3.946057 4.153038
2.111187 0.4989038 -5.219951
-5.892009 5.056284 1.786748
-2.886246 5.463169 -0.8024226
-1.672905 4.652547 -2.529303
-4.055917 3.510501 -3.730788
0.3151325 3.245767 4.442822
-5.782724 4.671559 0.2882516
-5.782724 4.632133 1.835766
-5.482991 3.530335 5.036667
-3.694488 5.383035 -0.9731331
0.7283894 3.178382 6.391444
1.157934 3.461733 6.376427
-4.196039 3.473719 -3.907132
-2.369207 5.595229 1.233126
0.740273 5.877131 0.07944642
-2.228593 3.82069 5.013453
-1.888623 1.963159 -3.730789
-5.782724 2.945046 -1.616072
-2.134218 5.245301 1.978582
-2.323125 3.393118 -3.730789
-5.892662 2.589691 -6.226626
-2.232744 5.420032 -0.894317
-2.705765 3.553924 4.986629
-3.822865 5.213237 -1.334857
-5.782723 2.759395 -3.035469
2.629167 3.632907 -4.343809
-5.420634 3.753644 5.185018
-3.678994 3.411409 -3.730788
-3.823804 2.920469 -5.004633
-5.782724 3.857192 -0.4009336
0.9734712 4.46133 -2.936657
-5.782724 0.9303406 3.356083
-0.9986259 3.14543 4.442822
1.107381 0.4989038 -5.084692
-3.563583 5.305681 1.849954
-0.5571966 3.99024 -3.940227
-4.634108 4.313869 3.962824
2.50534 4.360253 3.864012
-2.899486 5.083673 -1.61087
-2.224477 2.281802 -3.730789
-2.501291 0.883068 4.442821
0.5777405 0.4989038 -5.016486
0.7523476 0.4989039 -5.824184
2.469077 0.611608 -3.730789
0.357398 3.494192 -3.831499
-5.782723 2.651732 -0.4135818
0.3971546 4.808424 2.909269
-5.782724 2.858782 -0.4818089
-5.782724 0.2280286 3.928773
-1.239856 0.4989036 -4.151289
2.570492 4.328565 3.93152
-5.782724 0.4454091 0.4761238
-2.099379 4.71291 3.112742
-4.196195 5.85417 0.6814984
-5.782723 1.668732 -0.4040536
-5.545029 0.4989038 -5.454384
1.535275 3.121203 -4.263062
2.523696 3.141692 -5.133739
1.335828 0.2169411 6.744514
-3.211987 3.753645 5.164283
-5.622572 4.969506 2.566114
-0.5454119 4.574475 -2.695622
-2.726537 2.51998 -6.484159
-4.449662 3.495259 -3.827558
-1.35305 5.801774 -0.08108777
-2.251997 4.319105 -3.23964
-2.132795 3.020423 -3.730789
-5.782723 0.2086096 -1.828616
2.25433 0.01870132 -6.061543
-5.77319 0.4989037 -4.095272
-5.782723 1.829795 -1.826392
-5.782724 0.1507096 1.493199
-5.782724 3.667094 0.2967493
0.6312855 3.140767 6.53795
-1.712517 4.629388 -2.57864
-1.105156 2.871628 -6.131434
-5.403175 0.9727569 -3.730789
-5.782724 0.1770063 -0.7869093
-5.13399 2.905854 -6.004995
-5.489806 4.068932 -3.772588
-3.279985 5.609282 -0.4911541
-2.056167 2.771664 -6.500731
0.8678352 0.4989037 -4.708146
-6.329399 4.333151 -3.209718
-5.782724 3.810233 1.981317
1.569732 3.47976 6.306211
-4.859482 5.685019 1.041843
-3.090997 3.764829 -3.827204
-2.040251 0.4989036 -4.155958
2.335922 0.526134 6.138018
-4.930764 4.522214 -2.806954
-2.150667 5.192695 -1.378618
-2.151534 3.137211 -4.203924
-4.863425 2.79668 -6.408314
-3.799385 2.88514 -5.13515
-5.542833 4.431317 3.712625
0.1347132 0.4989038 -5.739233
-5.605934 0.02917094 4.442821
-5.782723 2.97646 -2.852394
-2.064146 3.518867 4.442822
-4.370229 3.187275 -4.96534
-5.939145 5.28432 1.300649
-5.782724 0.3701476 3.424479
-5.371913 0.5017985 -3.73079
-2.198503 3.230542 -4.8055
-0.7524202 5.606881 -0.496271
2.297004 2.803589 -5.436421
-5.782724 4.580579 -1.720614
-2.9869 3.374538 -3.730788
-2.655504 5.218821 2.034993
-1.583482 4.40627 -3.053952
-5.782724 4.257547 1.476251
0.2521105 2.735538 -6.561449
-5.715754 3.830444 -4.280642
-5.063733 5.628481 1.162287
-4.261326 2.702743 -6.736068
-5.782724 3.320739 -0.2689238
-4.420872 0.4989037 -4.577052
0.952405 5.856186 0.03482796
0.3126292 3.008292 -4.680189
-4.651953 0.4989036 -4.251207
-5.005202 2.922512 -4.997087
1.981883 3.464427 6.365932
-4.417154 3.27673 4.442822
1.485864 5.767602 0.8659165
1.558258 0.4989023 5.223958
-5.782724 0.09339087 -1.92022
-5.324549 2.702743 -6.682837
0.6120286 3.666013 -4.036822
0.8870866 3.948222 -4.029739
-5.782724 4.909968 1.139962
-5.782723 3.662197 0.5010031
-5.806972 5.336784 -1.071661
-3.113943 0.1906649 4.442821
0.05165815 5.718907 0.9696525
-1.912584 2.466064 -3.730788
1.687723 5.491415 1.454282
-5.782724 1.697417 3.71671
-4.191563 0.4989036 -3.977141
1.213157 3.263953 4.442821
2.267289 4.13072 4.352991
0.6942157 0.4989037 -4.531572
-1.285977 1.9778 4.442822
-1.32714 5.464617 1.511369
-5.782723 1.729847 -3.474423
-2.763102 3.242844 -3.730788
-2.765208 2.702743 -6.718653
0.00967297 0.4989038 -5.84392
-5.782724 4.16434 -2.472061
-5.782724 0.2677528 1.075371
-3.927175 3.125342 4.442822
-1.089003 5.464664 -0.7992375
-5.782724 3.752157 4.081523
1.753827 0.4989023 4.710098
-3.176266 3.187272 -4.965355
-5.782724 3.810547 -3.164203
0.4691377 3.201283 -4.913592
-2.327033 3.753645 5.229359
-5.782724 0.8453341 4.131547
1.324328 5.280172 1.904295
1.480512 3.671356 5.559975
-6.395744 5.04188 -1.622823
-5.276633 5.108512 2.269985
-3.405133 2.516774 -6.496004
2.317692 3.50161 -3.730789
-0.7268368 4.208111 -3.476094
0.3103818 2.983122 -3.730789
-1.181191 3.629593 -4.343809
-0.5072361 2.803585 4.442821
0.858449 3.675384 5.544285
-3.187865 0.7664279 4.442821
-5.782723 2.928475 1.651186
-4.563458 4.069191 -3.772036
-0.2679303 3.65141 5.055841
-5.692469 3.076532 -5.374458
1.709235 3.560963 -3.730788
-5.782724 0.1930053 -1.682966
-1.316368 5.441377 -0.8488468
0.8355558 5.944093 0.2220958
-3.309738 2.895739 4.442821
-4.148655 2.54558 -6.389585
-5.983089 4.081004 4.458902
-5.469429 3.812164 -4.319585
2.651817 4.1196 -3.664649
-1.858893 0.7431118 -3.730789
0.5654714 2.580495 -6.260598
-2.093963 3.871019 -4.194205
1.217494 3.476199 6.320085
-0.6868382 0.4989038 -5.571606
-4.432374 2.567789 -6.307537
-3.288361 3.743098 -4.343809
-5.782724 0.2928956 0.6404524
-3.760678 5.160141 2.159999
-5.782724 0.4843983 0.9940444
0.5944382 4.422684 -3.018985
-4.822266 5.278684 1.907466
-2.1297 3.753645 5.229865
1.483678 2.75501 -5.61589
0.6766526 2.602427 -6.179576
1.812547 3.342469 5.752348
-0.7582055 3.059479 -5.437458
-3.012478 4.440646 -2.98072
-3.301971 3.775754 -4.343809
-5.782724 0.02900497 -5.90985
1.321788 4.147161 -3.605937
1.439678 4.443742 -2.974125
-4.151041 0.4989038 -5.521636
-4.583152 5.998663 0.3383496
-6.038459 4.634965 -1.97283
-0.8777875 5.311227 1.838139
1.855177 3.2228 7.307033
1.787954 4.14539 -3.609708
1.458231 3.159201 -4.122686
-1.548485 5.235454 -1.287529
0.559423 4.50354 -2.846736
2.217035 1.922584 4.442821
-5.782724 3.711086 4.41389
-0.1164396 0.4989038 -4.616111
-1.993437 2.727087 -5.719045
2.654248 1.995508 6.744514
-5.782724 1.912269 2.923699
0.4025309 5.246649 -1.263678
-5.462542 2.609685 -6.152763
-6.395744 4.696315 -2.170589
-0.5019964 3.019933 -5.583552
-4.040484 5.524657 1.383466
-5.660542 4.339107 -3.19703
2.154548 2.926605 -5.928333
-2.050135 2.702743 -6.707169
-5.847925 0.4327611 -0.9600632
-1.966468 5.297104 -1.156194
0.3657146 5.823432 -0.0349496
1.266116 5.630393 1.158215
-0.7301216 5.144326 -1.481659
1.753743 3.696866 5.460617
2.252578 0.4989038 -5.887117
-3.304945 0.4989038 -5.338278
-5.782723 1.653088 -1.188239
1.972321 0.4989038 -5.405568
2.156831 3.165684 -4.098736
-0.5230201 5.074812 2.341777
-5.173612 0.4989036 -4.022554
-3.508476 5.081537 -1.615418
-1.65745 0.4989039 -5.878462
-1.398852 2.545925 -3.730789
-6.221047 3.284763 -4.605195
-6.296081 3.501728 -3.730789
0.1937082 0.4989039 -6.026547
-0.4913535 2.801311 -5.444837
0.275897 5.77183 -0.1448771
-5.073646 1.552474 4.442821
-1.653279 2.778664 -3.730789
-0.129628 0.4989036 -4.017509
-2.019067 0.6216332 4.442821
0.1618195 5.617566 -0.4735084
-1.205642 5.396677 1.656104
-5.094905 4.497066 3.572558
-5.782724 3.423275 -1.651445
-4.465138 2.246262 -3.730789
-4.80512 4.654562 -2.52501
-1.154085 5.418885 -0.8967601
0.4887451 3.74689 5.055841
-4.301776 0.4989038 -5.77487
-0.09687161 5.826088 0.7413222
0.9286361 3.242302 -3.815688
-2.523522 3.068958 -5.40244
-5.856313 3.988408 -3.944129
1.780622 3.47005 -3.920688
-1.897948 2.909154 -5.046435
1.286587 3.047215 6.902318
-5.782724 3.988731 4.009389
0.4483355 4.859431 2.800605
-2.824381 3.822071 5.010509
0.6680568 3.772681 5.165328
-5.378395 4.61525 -2.608759
-4.078199 5.141102 -1.488527
-6.093019 5.929554 0.5209065
-5.676726 0.7256318 4.442821
-2.005618 0.4989036 -3.804497
-2.527043 4.690482 3.160521
-1.206529 3.396954 -3.730788
-2.804081 5.348569 1.75859
-5.782724 3.403699 1.446751
0.4552199 2.845554 4.442821
-5.201281 4.932086 2.645829
-4.469165 5.430591 1.583856
-5.782723 2.116758 -3.022358
-0.1459451 4.34157 3.903813
1.080733 2.702744 -6.597121
-0.3950636 3.545335 -3.730788
-1.863946 2.712147 4.442822
1.807972 3.535804 -4.313036
-5.782723 3.78633 -0.422585
-5.782723 2.716911 0.3246719
1.184864 0.4989038 -4.920806
-5.782723 0.1993627 -2.297328
-6.336868 3.684206 -3.997013
-4.130084 4.504591 -2.844496
-5.782724 3.620823 -3.232659
-5.853961 5.443449 1.556466
-6.161147 3.868805 4.910952
-5.588336 3.145937 -5.118056
-5.782724 2.171939 3.103824
-3.194781 5.069806 -1.64041
1.170931 3.926099 4.788898
-0.734587 2.755436 -6.560684
-5.782724 2.661819 2.868119
-5.782723 1.885606 -3.357823
-5.253506 2.453676 4.442822
-3.24914 0.4989036 -4.057785
-3.773595 4.045537 -3.822429
-2.066417 3.412702 4.442822
-1.745075 3.809248 4.442822
0.7639021 3.359799 5.684853
-0.9505783 3.019877 4.442822
-2.856063 0.4989037 -4.968256
1.076783 5.827169 0.7390193
0.3089219 3.548079 -4.286999
-5.782724 1.847873 3.741407
-2.912907 2.94737 4.442821
-5.782724 5.644482 0.2691463
-0.7337921 3.098781 -4.345898
-5.782724 5.436263 0.8354355
-1.178456 3.906895 -4.117777
-1.274741 3.320601 -4.472794
-3.337482 4.069485 -3.77141
-5.782724 0.04417403 -1.134516
0.2959918 4.501446 -2.851196
0.1993394 5.4096 1.628573
-1.329696 4.414465 -3.036494
-5.194802 5.842714 0.7059045
-5.987397 4.273592 4.048626
-5.782723 2.697054 -3.240361
0.2213076 3.378783 -3.730789
1.083682 2.954495 -5.825302
-5.905334 4.954721 -1.885578
-6.069629 3.226683 -3.873389
0.6690799 5.343567 1.769244
-5.782723 3.26405 1.005071
0.4600661 4.88781 -2.02812
-5.063967 0.4989036 -4.040906
-0.9934404 3.145612 -5.119258
-5.782724 3.766138 0.350505
-5.782724 3.811645 2.777018
0.5176933 2.280396 -3.730789
-4.320189 3.462704 -3.947824
-5.782724 4.068336 2.585924
1.821271 0.498902 6.698963
-5.455143 5.949803 0.2342618
-6.223038 3.983896 -3.359063
1.470079 3.035127 6.949401
-3.650434 5.828574 0.7360266
-4.384088 0.5335577 4.442821
2.335922 2.653358 6.013625
-0.1310966 4.678197 -2.474662
-3.517684 0.4374574 4.508744
0.9969095 3.3608 -3.730789
-4.385842 2.597304 -6.561449
-4.703143 5.926445 0.5275295
-0.797857 2.702744 -6.606671
-2.282762 1.363072 -3.730789
-5.782723 2.164314 -1.869425
1.994351 3.726731 5.344298
-0.1717503 0.7473956 4.442821
0.6515067 3.519774 -3.736991
1.429511 2.998689 7.381159
-4.987749 2.523403 -6.561449
-3.115285 3.02372 -5.569562
-5.782723 3.650228 -3.623063
2.149279 5.901305 0.1309462
1.78817 5.371234 1.710305
1.849758 0.5293977 -3.730789
-3.986341 4.214534 4.17444
2.07701 3.37631 -4.266991
-6.111824 5.09216 2.30482
-0.2761853 3.234259 -4.791768
-2.077263 4.757542 3.017663
-4.236654 4.969429 -1.854244
-0.1247091 3.438369 -3.730788
0.8069481 0.4989037 -4.592028
1.133821 3.252078 6.104411
-4.755718 5.565257 -0.5849419
-5.842257 4.475937 3.023854
-2.036565 3.503089 -3.798632
1.734442 3.018237 7.015184
1.29571 4.40485 -3.056975
-0.4390726 3.890193 -4.15336
-5.821279 5.378623 1.099626
-4.827978 0.4989037 -4.539459
1.583377 2.537525 -6.419342
-1.78156 4.416758 3.743639
2.335922 2.818216 5.743433
1.51055 2.960529 7.381159
-5.782724 3.169703 1.545258
-6.213531 5.420359 -0.2986283
-5.936402 2.5209 -6.48076
1.587878 4.965054 -1.863565
-3.768487 3.365152 -4.308209
1.426551 4.391227 3.798027
-5.841089 4.933112 2.643644
-4.767749 3.888336 4.869345
-5.782724 3.063014 3.375853
-5.759281 3.685649 -3.99517
-5.782724 3.808777 -0.7536943
-4.763902 2.832725 4.442821
0.7143859 1.020435 4.442821
-0.8065959 2.209287 4.442821
-3.958633 0.4989038 -5.649584
2.041998 3.803445 4.457316
-5.894593 5.264832 -0.6301598
2.412374 4.068228 -3.774086
-5.968891 3.193241 -3.996933
-3.17662 3.802096 -3.748149
2.335922 2.138927 6.712463
-5.782724 4.548019 -0.7064511
-5.406678 2.012266 4.442821
-5.782723 0.2402961 -4.109572
-3.218939 3.603113 -4.170254
0.9816314 4.322385 3.944683
-2.338114 4.658376 -2.516887
0.6740841 1.732378 -3.730789
-2.178631 0.9351023 4.442821
-3.952943 4.181016 4.245845
-1.862205 3.013699 -5.606585
0.3315102 3.604993 4.878295
-3.135599 3.164813 -4.101955
2.571604 2.369361 -3.730789
0.3214666 1.606269 -3.730789
0.7921479 3.17356 6.410225
-2.993065 4.223171 -3.44401
2.393825 1.959542 6.744514
-3.316843 3.783517 -3.730788
2.335922 3.375996 5.562811
-0.8056985 4.82262 2.879026
-5.782724 3.71292 -0.1267523
-3.68759 4.396252 -3.075294
-5.596025 3.494384 -3.730788
1.10935 0.4989024 4.641212
-6.395744 5.087371 -1.124614
-5.782723 2.011654 -1.838872
-0.07035697 3.138047 -3.730789
-2.812694 3.06772 -5.407012
-1.227772 0.774937 4.442821
1.3402 0.4989023 4.945736
-0.96546 2.349285 -3.730789
-5.195076 4.94467 2.619021
-5.782724 4.994286 -0.08883566
-5.782724 4.000985 -1.749509
-2.25923 2.742948 -5.660451
-6.395744 4.381618 -2.595633
1.635192 1.05022 -3.730789
-5.364839 3.316559 -3.730788
1.648458 4.129407 -3.643757
-1.913853 4.558444 3.441802
2.322822 1.658572 4.442821
-4.620736 5.144751 -1.480755
-0.7498089 0.6698451 4.442821
-3.990336 3.753644 5.245598
-4.761304 5.853655 0.0294361
-4.737058 2.921859 -5.945866
-0.6806953 3.764143 -3.82866
0.3021247 3.591728 -3.730788
1.133192 3.528366 -4.328815
-5.326725 5.594497 -0.522653
-3.645076 4.146913 4.318494
-4.012873 3.20481 -3.954194
-6.153932 5.004858 -1.778769
2.639876 4.425858 3.724254
-6.217188 3.809263 5.037793
-4.694512 2.880573 -5.152022
-1.674427 5.128693 -1.514964
-3.105707 5.934222 0.20107
-5.707648 3.536067 -4.31248
1.714485 0.4989036 -3.831424
-5.928089 4.453938 -2.358719
-3.761549 3.050309 -4.524966
-4.676662 5.945632 0.2253771
-1.776643 3.407635 -4.151268
-1.005526 4.688257 -2.45323
-4.986939 4.598337 3.35682
-0.6162419 5.961119 0.2583683
2.176289 4.446319 -2.968635
1.854697 0.4989038 -5.098903
-5.782724 4.344406 -0.4892161
-4.202742 2.529954 -3.730789
-5.847924 0.4503521 4.349512
2.140857 3.440917 6.457499
-3.536242 4.690416 -2.448632
-4.432862 3.596985 -4.343809
-5.782723 0.3272761 -3.851487
-4.949448 3.263757 -4.682794
-6.395745 5.443028 -0.8415934
0.626086 5.785583 0.8276104
-6.231737 4.808644 -1.60205
0.6879168 5.662187 1.090485
2.461005 3.973047 -3.976854
-5.193532 3.439439 -4.033774
1.353399 5.408609 -0.9186516
-4.559237 5.956918 0.2494177
-5.782724 3.560096 1.431272
-5.782724 0.5830685 3.47201
-5.782724 4.345569 -2.011261
0.4971788 5.600883 -0.5090498
-2.577219 0.4989038 -5.432957
1.957144 2.975105 7.18318
-6.240653 5.085392 1.724487
-2.596118 5.29811 -1.15405
-1.226084 3.175359 -4.062996
-5.384157 0.4989038 -5.199134
-3.076746 3.200347 -3.970684
-1.39224 3.080824 -5.358602
-2.043097 3.671071 -4.026093
2.335922 3.453152 5.302671
1.525701 4.956055 2.594769
-5.242617 0.4989038 -5.790896
1.419583 0.4989038 -5.104434
-5.782724 1.417361 2.438448
-5.782724 2.430434 2.700474
-1.969334 0.6615298 -3.73079
-5.782723 1.216881 1.969393
-1.064449 4.828098 -2.155325
2.286091 3.170574 -5.027038
-2.158683 0.4989038 -5.114137
-5.782723 3.128322 0.290659
-0.2546551 2.903997 -6.011855
-6.244137 3.868507 4.911586
-1.369927 1.5814 4.442821
-1.33305 5.135723 -1.499986
1.068301 3.619704 -4.343809
-3.291788 1.164146 -3.730789
2.122536 3.348867 -3.730789
-5.916431 3.038333 -5.515575
-2.378641 2.998486 -3.730789
-2.280676 5.530836 1.370304
-0.2738227 0.4989038 -5.00775
-2.084546 0.4989038 -5.363384
1.803646 3.267201 6.045505
2.226164 5.130575 2.222984
-3.380033 0.4989038 -5.040266
-2.790553 3.14195 -4.186418
-4.730959 3.710166 -3.94316
1.018451 2.961162 4.442821
0.9514472 0.4989036 -4.062806
-0.6301003 5.147907 -1.47403
-3.307449 3.86087 4.927855
-1.57618 4.204953 4.19485
-1.587884 2.484486 -3.730789
-5.782723 2.59757 -2.688689
1.015487 4.654181 -2.525824
2.335922 1.646562 6.133373
-2.645845 5.973123 0.2839395
-4.54519 2.969219 -5.770905
2.161273 3.367151 -3.730789
-1.655887 5.627216 -0.4529498
-5.031374 5.034901 2.426801
-4.148345 2.516855 -6.495705
2.216197 3.042293 7.381159
0.8529966 5.048185 2.3985
2.00426 5.14681 2.188398
1.280493 2.337333 -3.730788
-1.777184 6.004223 0.3618398
2.069494 1.129133 4.442821
1.126313 1.589069 -3.730789
-0.9587012 4.452473 -2.955526
2.285464 3.259362 -3.730789
-0.1010681 0.4989038 -5.382218
-2.273756 0.458406 4.508744
1.025272 4.071443 4.47927
1.253034 2.932615 -3.730789
-5.384429 4.520015 3.52367
-6.352489 3.928061 -4.072689
-6.172772 4.444633 -2.972226
-4.720076 3.658437 -4.052894
2.022756 0.4989023 4.959161
-2.965487 5.831375 0.7300604
-5.782724 3.056185 -2.225006
-4.908885 4.218611 -3.453724
-4.130772 3.753644 5.192155
0.4412088 2.359574 -3.730789
-4.522915 5.219592 2.033352
-0.6216263 2.798467 4.442821
-0.7830606 4.862312 -2.082437
-6.164178 3.966108 4.109237
-2.913706 2.882138 -3.730788
1.075617 3.645096 -4.343809
-1.710965 2.893113 -5.105697
-5.782723 0.3940099 1.984194
-3.178624 5.114822 -1.544511
0.5409359 0.4989037 -4.237564
-5.782724 2.0143 3.115497
-5.782723 2.794534 1.618582
-2.473385 2.900069 -6.026366
1.256647 2.744837 4.442821
-3.042776 5.455683 -0.8183699
-2.739955 3.350327 4.442822
-5.314955 4.85504 -2.09793
-1.902889 0.8263401 4.442821
-0.6384598 3.758718 5.055841
1.800704 3.387056 5.578689
-2.208053 3.386177 -4.23054
-1.244928 4.370821 3.8415
0.07184878 0.86538 -3.73079
-6.252087 4.745105 -1.737322
-5.782724 3.403813 4.296928
-3.355995 2.540709 -6.40758
2.059567 5.930873 0.5180979
-4.457535 5.387768 1.675082
1.028769 3.262165 6.065121
-5.782724 4.356923 -1.870301
1.078937 0.4989023 4.979635
-5.782724 1.484025 2.761075
-5.782724 1.189631 1.534465
2.20405 0.05543797 -6.061543
1.014398 2.616492 -6.127615
-0.95105 2.488174 4.442821
-1.190885 3.275212 -3.730789
2.068107 3.187489 -3.730789
-3.690969 3.889927 4.865956
-5.782724 2.56932 3.311205
-1.602872 3.079505 -5.363475
-5.782723 0.9070264 -2.789938
-4.828743 3.028504 -5.551889
-5.782724 4.045296 -3.061128
2.026992 5.794979 -0.09556215
2.078079 3.612015 5.791098
0.6194482 3.296598 -4.56147
-5.782724 4.634986 1.899862
-5.782724 4.284042 -1.616673
-0.5267811 4.351069 3.883576
-5.782724 1.224607 1.809268
-5.967603 5.240057 1.989754
1.669283 5.984258 0.4043725
-5.880885 5.309142 1.247736
-6.051957 3.733446 4.605355
-6.123165 5.180517 -0.8098909
-1.041667 1.975662 4.442821
2.426631 3.193717 -4.941545
-5.782724 1.705784 4.296864
-2.708683 2.647447 -6.01326
-6.395744 5.13887 2.185065
-3.174981 0.4989037 -3.976185
-0.4986869 5.956664 0.2443959
1.153662 0.4989037 -4.729603
-2.907587 0.4989037 -4.53469
-0.787692 0.4989038 -5.791376
0.1399798 3.400154 -3.730789
-1.095505 5.18204 -1.401315
2.159041 3.15741 6.473129
-2.264313 2.325994 -3.730789
0.0878818 5.250488 -1.2555
-5.060206 0.4989038 -5.177634
-0.3752256 3.753646 5.206605
1.131065 0.4989021 6.443674
-2.697563 5.498856 -0.7263986
1.160373 2.85109 -5.260939
-5.84605 5.602232 -0.5061752
-0.3405781 2.82914 -6.2884
-0.310363 0.4989037 -4.366611
-5.782723 3.133152 -3.721728
-2.543115 0.7527362 4.442821
-1.145835 0.9184201 4.442821
-2.156305 1.041594 4.442821
1.460669 0.4989021 5.920175
-3.843708 5.11884 2.247983
-1.658218 3.0809 -3.730788
-0.1533693 0.4989038 -5.469948
-3.466046 3.075817 -4.430731
-2.831176 0.4989038 -5.090062
-4.809087 2.962007 -4.851182
1.191149 4.791369 2.945599
-0.6240622 3.250521 -3.730788
-1.111798 4.940669 2.627545
-3.707791 0.4989038 -5.609417
-5.585899 0.4989038 -5.720158
-2.37516 4.285066 -3.312155
-1.934995 4.478015 -2.901113
-6.212695 2.791156 -6.428724
-1.091619 5.751032 0.901216
-6.194571 5.276857 -0.6045245
-1.385678 0.4989038 -5.047463
-1.048608 2.789069 4.442821
-3.422132 1.300349 -3.730789
-0.6950191 2.561566 -6.561449
-2.344156 2.99978 -5.658004
-5.620872 2.975647 -4.800788
1.940165 3.515662 -3.730789
-5.986387 2.87086 -5.187905
-3.94467 3.679003 -4.009268
-5.782724 4.533348 -1.67837
1.982327 4.567639 -2.710185
-2.327166 2.538085 -6.417274
2.477867 3.695618 -3.974021
2.06446 3.154515 6.484403
-5.782724 3.136766 4.268331
-3.591746 5.414032 1.619131
-4.051139 1.974422 -3.730789
-1.00776 4.344652 -3.185219
0.481791 0.4989039 -5.798872
2.285326 0.4989022 5.674002
-3.659132 4.887159 2.741538
2.281052 2.828094 -6.292263
-0.8938891 3.923534 4.794361
2.335922 1.619814 5.704258
-2.586075 3.697629 4.442822
-4.779927 0.08376838 -6.061543
-5.782724 0.9098369 1.503496
-3.411299 5.667909 1.078294
-0.3595349 2.851961 -5.257721
-5.782723 2.400607 3.037615
-0.3231621 5.111072 2.264532
-1.343211 5.603225 1.21609
-0.2448736 4.284093 4.026256
-5.782724 2.620527 -0.9253536
1.283543 2.602901 -6.177824
-5.782724 0.09916462 0.5244197
-3.737047 0.7694669 4.442821
2.349841 3.377986 6.702606
1.432538 3.584455 -3.730789
0.3391655 1.452553 -3.730789
2.337064 0.8630757 6.744514
-5.959747 4.322724 -2.638368
-5.801179 4.018992 -3.285882
-4.198849 3.755675 4.558653
-6.364785 5.90655 0.5699138
-5.782724 4.449029 1.800289
-5.782724 3.759369 -2.305324
-5.202176 3.555074 4.984188
-5.782724 2.924235 0.1760319
0.3452029 3.142901 -3.730789
-4.966038 0.4989038 -5.241374
-5.548906 3.367695 4.442821
-5.729901 4.382508 3.816603
-4.310337 3.637497 4.809344
-4.598971 1.831348 4.442821
2.335922 2.36884 6.072551
-0.3058968 4.042629 4.540652
-0.06901843 2.545105 -3.730789
-5.782724 5.523753 0.3779446
-2.349167 3.641508 -4.088807
-5.782723 2.738013 0.8487322
0.5494808 3.250844 -3.730789
-5.99858 2.772725 -6.496811
-2.481343 1.050147 -3.730789
-4.090041 3.583783 5.055841
-5.782724 4.959859 1.502823
-5.488674 5.954372 0.4680382
-4.933754 0.4989037 -4.791962
-3.289077 3.357482 -4.336546
-4.614015 0.4989036 -3.864958
-3.336454 1.502933 -3.730789
-2.076082 2.61264 -6.141844
-2.300479 5.062254 -1.656497
0.362716 4.996383 2.508857
1.136674 4.887423 -2.028944
-3.221472 0.4989038 -5.384016
-6.326429 4.990804 -1.213592
2.295105 2.140244 4.442821
2.409116 5.615479 1.189986
0.9449806 2.647988 -6.011258
-0.09540102 1.941604 -3.730789
-1.96951 0.8745189 4.442821
-5.782724 2.366809 3.651258
-5.782724 0.7985707 1.146136
-3.319173 5.713078 0.9820713
-5.782723 1.073793 0.7943178
0.5730143 4.938879 2.631357
-0.9056188 1.796445 4.442821
-4.774279 3.694737 -3.730788
0.8234429 3.480119 6.304815
-6.085431 2.634325 -6.061737
2.180654 3.688396 5.493603
-0.2492181 0.4989037 -4.473922
-6.256619 4.125428 -3.057411
-4.223151 0.4989037 -4.583352
-4.800077 0.4989039 -5.820848
-5.847925 0.4843293 0.9620014
-2.92409 0.4989037 -4.866938
-4.276433 3.629597 5.055841
-5.782723 2.583644 -0.4690132
-3.287543 4.124806 4.365589
-5.455368 2.850894 -5.261665
1.266508 4.709475 3.120061
1.402223 0.4989022 5.612934
2.100525 0.498902 6.349317
-0.05206907 3.392304 -3.730788
0.8266529 3.276124 -4.637108
2.335922 1.305581 6.024551
-5.782724 2.76869 2.533297
-6.11009 3.506163 -3.730789
1.536912 3.49621 6.242145
-5.782724 3.681768 4.24906
-6.210987 4.493308 -2.868534
-0.1567011 4.570261 -2.7046
1.538239 2.960102 4.442821
-5.782723 0.6665277 -3.359939
-5.137969 1.665234 4.442821
2.007819 4.50754 -2.838214
2.335922 2.281987 4.590792
1.866546 0.8536007 4.442821
-2.508631 5.838341 -0.003186807
-3.078898 3.115568 -5.230248
-0.4828889 3.978209 4.677887
0.1626949 2.843828 -6.234138
-5.64011 4.688331 -2.453073
-3.469933 2.688823 -5.860403
-5.156068 1.843025 4.442821
0.4374306 5.296883 -1.156664
-4.680934 0.2906103 4.442821
-1.544642 3.34303 -4.389937
-3.3837 4.169386 -3.55859
-5.782724 4.145647 2.792949
-5.241796 2.863563 -5.214862
-5.782723 0.1370602 3.759231
2.335922 2.918793 6.612549
2.134566 0.4989038 -5.610045
-4.006966 5.348569 1.758587
1.81155 0.4989023 5.061951
-4.668896 5.250436 1.967642
-0.2871155 3.798887 4.466987
1.230932 3.079273 -4.417965
-1.931311 2.76722 4.442821
-5.782724 0.6297666 -1.498206
-1.336241 5.923698 0.533383
2.377543 0.8308201 6.744514
-0.6871583 4.361127 -3.15012
-0.9815453 2.813812 -5.398658
1.920277 3.547598 -4.288018
-3.627516 3.706101 -4.343809
2.589005 0.4989038 -4.925803
-6.032401 2.99036 -4.746435
0.4756786 0.4989037 -4.935083
2.071628 5.70208 -0.293468
-5.225754 3.317692 -4.483543
-2.059252 5.177916 -1.410101
0.404686 3.59076 5.055841
-4.778935 4.941209 2.626394
2.569002 4.318207 -3.241553
-4.327271 0.4989038 -5.332595
0.3434967 3.413139 -3.730789
-0.6814578 0.4989036 -3.913881
-5.782724 0.01999077 -1.706069
-2.041599 0.4989038 -5.936765
-0.19291 3.141683 -4.187403
-5.782724 1.38724 2.824266
-4.717808 3.056241 -5.44942
-5.782723 3.412397 -2.33604
-5.782724 4.750205 2.303424
-0.2575336 4.989442 2.523642
-2.040998 2.890841 -3.730789
1.204557 2.764748 -5.579913
-4.888837 3.694305 4.442822
-5.236077 0.09111813 -6.061543
-3.134728 0.02380152 -6.061543
0.3301914 3.103193 -4.329597
-3.442348 3.075758 -5.377321
1.727015 5.42163 -0.8909122
-2.217203 2.945527 4.442821
2.335922 1.995736 4.745526
-5.866168 5.778329 0.8430659
-2.138948 3.802529 -4.340111
-3.539127 2.951756 -5.835417
1.114138 2.702744 -6.780262
0.8994653 3.044111 7.381159
-2.021316 4.328622 -3.219367
-4.319062 4.538279 -2.772732
-6.110983 4.295831 -3.289222
-1.729233 2.560752 -3.730789
-3.225114 4.124211 -3.654826
0.1371715 4.954413 -1.886235
-0.6825052 3.103693 -3.730789
-5.782723 2.756037 0.06789231
1.539827 3.149082 -3.730789
0.16256 5.386805 -0.9651031
0.1264466 4.425552 3.724905
1.524956 0.4989037 -4.087321
-5.782724 4.010517 -1.509611
0.8487076 3.517972 5.06879
0.2208492 3.260058 -4.696457
-5.757483 5.850093 0.02184856
-3.523935 5.571218 -0.5722457
-4.861794 2.817345 -6.331972
-5.782723 0.9267988 -2.389849
-1.856789 5.378521 -0.9827486
-4.946741 5.046803 2.401444
-2.029125 2.694573 4.442821
1.947672 3.482523 6.295449
-0.04426944 2.751428 -5.629123
-4.540103 4.230479 4.140471
-0.9744571 4.564716 3.428441
-5.486694 1.404262 -3.730789
-4.996055 3.240842 -3.821082
-4.130988 2.688348 4.442821
0.2591977 3.208709 -3.730788
-4.880177 4.517416 3.529207
-1.517224 2.768214 -5.567111
-6.267821 4.275538 -2.737581
1.96732 3.524319 6.132663
-0.275107 0.4989037 -4.94232
-4.970345 0.2346327 4.442821
1.763418 5.331882 -1.082104
-0.6575948 0.4989039 -6.01134
-5.45378 5.671759 1.070094
0.5324145 3.703833 -3.956595
-4.668807 3.026299 -5.560032
-3.478358 0.4989038 -5.184322
-0.08423972 5.895687 0.1189781
1.60708 0.4989036 -3.805061
-5.782724 3.447278 -0.1825602
-4.70484 4.191681 4.223124
1.906821 2.777053 -5.534454
-5.782723 2.206709 -2.075106
-5.74158 1.339267 -3.730789
-2.871605 0.4042526 4.508744
-1.536642 2.762576 -5.587939
-5.953161 5.417193 1.017406
-0.05571972 1.162785 -3.730789
-0.09364706 0.4989037 -4.383724
1.333197 3.261274 -3.7456
-5.782723 1.145187 -2.185452
-5.782724 3.087909 -0.6114146
-1.367871 3.740346 -3.87914
-4.124373 5.98876 0.3947788
0.4363961 4.011409 4.607159
-1.777396 2.926134 -5.930074
-0.168486 2.924722 -5.93529
1.069413 0.04546508 6.744514
0.6938689 0.4989036 -4.146499
-3.484141 5.593243 -0.5253242
-4.387034 4.976359 2.551513
-5.782724 2.407249 3.125284
1.936431 5.177857 -1.410227
-4.476705 2.306748 -3.730789
-1.531631 5.816056 -0.05066061
0.7367018 3.036666 4.442822
-5.035843 0.4989035 -3.836436
-6.120648 4.575819 -2.098513
-4.557038 2.553379 -6.360773
-0.5472808 0.4989038 -5.493354
2.077269 0.4989039 -6.071706
-4.040198 3.221411 4.442822
-1.726961 4.68839 3.164979
-4.526822 4.101426 4.415396
-0.3155422 2.997577 -4.719775
-5.782723 1.033404 2.266695
-1.746105 2.728401 -5.714189
-1.898128 5.582971 1.259238
-1.509102 3.099082 -3.730789
-5.461542 2.089792 4.442821
-5.782724 4.042138 -0.1650339
-2.060966 3.206604 -3.947566
-5.782723 2.714911 0.2842801
-5.782724 2.071529 1.979585
-5.782724 4.921223 1.692918
-5.695921 4.442498 -2.976774
-4.037872 2.84831 -6.217579
1.347721 3.064253 -4.473454
-0.4221456 5.724484 0.9577696
-5.700131 3.840108 -4.260056
-4.895074 0.1042694 -6.061544
-4.623668 5.22852 -1.302297
1.785605 4.162955 -3.572289
-2.954869 3.600321 -4.176176
-2.521069 2.989226 -5.696992
-3.218202 5.460038 1.521125
-6.395744 3.618488 -4.296678
-4.230804 4.859258 -2.088944
0.1433319 4.110975 4.395053
-4.733899 5.965835 0.4436184
-5.175673 3.0475 -4.535346
-5.128022 3.444219 -4.016113
-2.011723 5.807931 -0.06797102
-0.267874 5.539625 -0.639547
0.0548379 5.972971 0.279461
-1.721017 4.29072 4.012139
1.756535 3.052272 -4.517715
-3.940209 2.702743 -6.767887
2.359805 5.237411 1.99539
-0.2935042 3.049067 -5.475925
-1.540148 3.916764 -4.096755
-4.82745 3.068635 -5.403636
2.319316 3.658818 -4.052087
2.335922 1.666492 6.441501
2.335922 3.222903 5.358916
-5.801513 3.753023 -3.852247
0.7348695 5.561425 1.305138
-2.141693 3.231045 -4.803642
0.4475963 3.066349 -4.465712
-0.1003718 5.415277 1.616479
-2.036288 2.897084 -5.091027
-0.3763899 2.715917 -5.76031
-1.090283 0.4989039 -5.804825
-2.898444 3.769444 4.529443
-1.252584 0.4989038 -5.257309
-5.782723 2.79955 -1.573358
-0.9818342 4.744585 3.045265
0.9299994 3.028401 -4.605901
-3.551162 5.607694 1.206571
-0.7826571 5.936062 0.2049888
-1.018735 3.604787 4.442822
0.2926251 3.323306 -3.730789
-4.368609 4.794467 -2.226968
2.056093 3.337072 -3.730789
-4.125644 2.307555 -3.730789
-4.53969 4.692402 -2.4444
-5.782723 2.43647 -1.287483
1.193632 4.985814 -1.81934
-2.74868 5.11778 -1.53821
2.326975 3.380731 -3.730789
-1.404171 3.742878 4.585798
-0.7421651 5.620104 1.180134
-5.782724 0.764038 1.208183
1.369907 3.710386 -3.942695
-6.121973 3.848612 -3.647688
-5.487924 5.170845 2.137198
-3.110389 3.223883 -4.830101
-0.3707666 4.384747 -3.099802
-2.772898 0.9351648 -3.730789
2.002502 3.202048 6.299269
-5.782723 2.580921 -0.9078156
-5.31455 3.027225 -4.610246
-4.099243 4.529494 -2.791446
-5.366933 2.826471 -6.298258
-0.2622293 3.863482 4.922292
-5.782724 0.629186 2.298709
-4.545177 3.373679 -3.730789
1.386435 5.023311 2.451492
-3.777181 3.753644 5.224085
-0.8678155 2.615354 -6.13182
-5.231835 3.239927 -3.824463
2.503564 3.051615 6.885184
1.989208 3.442246 5.363729
0.102335 3.427759 -3.730789
-5.782724 0.6469126 1.136015
-2.696262 3.151658 -4.150556
-0.5434661 3.637818 -4.096633
2.279187 0.4989038 -5.191589
-5.782724 2.4793 -1.8508
1.895207 5.472927 -0.7816359
-2.377831 3.936779 -4.054117
1.556248 0.1835773 6.744514
2.523205 5.071679 2.348452
2.622333 2.802925 -5.438877
-0.7538347 5.603208 -0.5040949
-5.782724 5.032544 0.6981251
1.644664 2.976728 7.381159
-5.679727 3.139287 -5.142622
0.5910842 3.448731 -3.999444
2.580366 0.4989038 -5.58388
-5.782724 0.6077132 4.210619
-5.782724 0.6950522 -1.469129
-2.281051 1.097957 4.442821
-0.7825146 2.694679 -5.838771
-5.982003 3.769278 -4.343809
0.3958044 3.407197 -4.152884
-2.616313 1.630399 -3.730789
-5.902285 3.948848 -4.028405
-5.782724 4.245176 2.154395
-3.287094 4.652102 3.242283
-2.521945 2.879411 -5.156316
-5.782724 0.661745 4.142808
-3.458395 0.5889031 -3.73079
1.059273 4.793143 2.94182
-2.017169 4.727267 3.082156
2.149562 2.646603 -6.561448
0.5357019 1.565031 -3.730789
-2.32295 4.239352 -3.40954
2.335922 0.8643349 5.98833
-5.782724 2.938509 -0.3650022
-0.4642062 3.387625 -4.225189
-1.031276 5.842501 0.7063579
-6.392026 5.554482 -0.6078969
1.064327 4.773338 -2.27198
-5.782723 1.630717 -1.610663
2.375026 0.4989039 -5.863073
-6.395744 5.184279 1.825989
-5.782724 1.206629 2.241826
2.596217 2.94304 -5.867619
-0.2610314 3.548306 -4.343809
-3.336093 3.010059 -5.620032
-3.457383 0.2340894 4.442821
-0.2661702 4.735154 -2.353324
-6.005945 2.554884 -6.561449
-0.3007622 3.787502 -3.779106
-4.768974 2.530053 4.442822
-5.517324 2.594053 -6.561449
1.467395 2.993264 7.381159
-5.782724 5.074505 -0.3263198
-1.093625 2.975513 -4.801283
-4.109668 2.680274 -6.561449
-5.782724 0.7330881 -1.24204
1.942846 4.633593 -2.569681
0.482111 2.702744 -6.637993
-1.664099 3.179992 -4.992247
2.010742 5.345255 1.76565
1.874253 5.893091 0.1134462
-3.234049 5.314651 -1.118814
-3.899649 3.999555 4.632412
-2.052478 0.4989038 -5.061793
-4.433215 4.370811 3.84152
0.2093366 4.772144 2.986554
-0.5688394 2.810097 4.442821
-5.782724 4.580569 -1.893225
-5.782724 3.423782 -3.583355
-5.847925 0.5177519 1.84373
-3.629177 5.636501 1.145202
-5.782724 0.4609824 3.426171
1.032391 1.096419 4.442821
-1.07436 4.448107 3.676857
-5.807892 4.778293 -2.261424
2.349378 2.702744 -6.784235
0.7383529 3.269567 -4.661331
-4.345866 3.340598 -3.730788
-0.3421158 1.527028 4.442822
0.9040637 3.011436 -5.614944
1.41731 2.991206 7.120468
1.570368 0.1300191 6.744514
-1.637223 3.117815 -5.22195
-5.5158 5.29625 -1.158013
-5.755384 4.102373 -3.701349
1.453943 3.287774 7.053971
0.9189211 0.4989036 -3.975587
-2.94197 3.768427 -3.819571
1.592384 3.807379 5.041811
-3.465327 2.864817 -5.210229
1.13566 5.940582 0.4974156
-1.787353 2.666052 -5.944525
1.8346 1.007566 4.442821
-0.4058402 2.914299 -5.027426
1.561879 3.204443 7.37853
-1.102719 5.396853 1.655728
0.4084127 3.19177 -4.002368
-1.901805 5.700821 -0.2961474
-5.782723 1.56837 1.109366
-5.782723 1.221286 2.314319
-0.3734195 4.100627 -3.705067
2.218972 3.385286 5.585581
2.335922 1.317805 6.697931
1.194951 0.498902 6.519415
0.4077709 0.4989038 -5.291089
-0.1594254 3.132913 -3.730789
-1.94287 3.296269 -4.562686
-4.130858 4.87515 2.76712
-0.1089741 3.580683 -4.343809
-1.555701 2.549675 -6.374458
2.197037 3.744389 -4.343809
-1.318004 4.121372 4.372904
-5.782724 0.1543435 1.407194
-2.594505 2.969754 -4.822564
2.537154 3.261264 -4.692003
-2.050214 2.738534 -5.676756
-5.782724 0.6717094 0.3344745
-2.305184 3.580642 -4.217921
-5.782723 2.051754 1.484753
-3.702923 3.026242 -5.560246
-5.782723 0.8876941 -2.515399
-5.782723 2.665739 2.773228
-1.623109 3.243005 -3.730788
-6.366314 5.282906 1.898472
-5.474981 3.076531 -5.374461
-2.977436 4.25163 -3.383383
0.6315101 2.950487 7.381159
0.953827 3.125691 -5.192851
-0.3918359 5.431721 -0.8694164
-5.528418 2.835881 4.442822
1.201475 2.580329 -6.26121
2.071007 1.425452 -3.730789
0.0585525 5.529696 1.372733
-1.028416 3.519088 -3.739526
-0.9266903 3.639138 4.805864
-4.701364 4.011746 4.606442
1.390268 3.461151 -3.953563
-2.77725 2.835955 -5.316854
1.014966 0.4989037 -4.399447
-5.782723 1.205882 2.742559
-0.3841274 3.085406 -5.341676
-4.040023 4.605423 -2.629692
-2.01747 2.702744 -6.734735
-5.782724 0.0746135 3.321451
1.056062 3.728002 4.617354
2.52554 5.633765 -0.4390002
-0.4595707 2.803336 -6.383725
-5.88161 5.171541 2.135715
-6.106266 4.181046 3.651596
0.2181922 4.924894 2.661149
-2.523985 3.159415 -4.121897
-5.782724 3.590244 2.804729
-4.082195 0.7593652 -3.73079
2.264819 5.100779 2.28646
1.609734 0.498902 6.555969
-5.038624 5.664466 1.085629
-3.547614 5.066628 2.359213
-1.224822 4.136977 -3.627631
1.520422 5.728595 0.9490141
-6.192912 5.709603 -0.2774409
-5.782724 4.63124 1.569906
-5.782724 4.552448 2.092221
-0.8251302 3.913038 -4.104691
-1.530462 5.065507 -1.649569
1.834166 4.322878 -3.231602
-2.75328 3.008226 4.442822
-3.282637 5.076519 2.338141
-5.782723 1.365929 -1.226205
-5.782724 3.692298 -2.799145
2.601978 2.766915 -6.518276
1.691186 0.1364037 -6.061544
-0.239579 3.143128 -5.128433
-3.031995 0.2218139 -6.061543
2.016846 0.4989039 -6.068001
0.8122817 2.702744 -6.692673
-0.815501 3.42393 -4.091069
-2.181662 3.753645 5.160625
-4.149002 2.148931 -3.730789
0.4089484 5.707093 -0.282786
-1.408925 5.701428 1.006887
-6.278182 4.597456 -2.646667
-1.886615 3.065779 -4.467815
2.652814 2.911669 -5.983513
0.5431155 2.945791 -5.857457
-6.191056 4.108805 4.399677
-5.782723 2.625244 1.437755
-3.726172 5.080219 2.330259
-2.299708 0.4989036 -4.083915
-1.386974 0.8394154 4.442821
2.139632 3.016887 7.020442
0.06289611 1.476093 -3.730789
-3.5054 3.090196 -4.377613
-5.400158 4.730537 -2.36316
2.622124 3.039774 -5.510254
-1.501414 3.684983 5.055842
-1.963274 3.195578 -4.934668
2.335922 2.054923 4.773978
-3.111678 2.544447 -6.561449
-4.020582 4.3363 3.91504
-6.372283 4.384095 3.813222
1.347865 0.4989038 -5.106225
-4.968159 4.150658 -3.598487
-2.927904 4.996833 -1.795865
-6.365741 4.03364 4.559803
-0.9683014 2.91746 -5.015749
-0.405473 0.7856321 4.442821
2.126393 0.4989023 4.669184
-4.918946 5.56247 -0.5908806
-5.782724 4.169436 -1.285524
-0.5370338 2.873568 -5.177901
-0.4217111 2.702744 -6.645146
-2.960878 3.60429 -4.167757
-5.782724 4.424932 -1.349204
-3.970342 2.499971 -6.558078
-5.782724 0.2935875 -4.475949
-5.782724 4.239889 -0.0687803
-0.3537328 4.490139 -2.875283
1.990881 3.661505 4.442822
2.45668 2.778287 -5.529898
-2.805445 2.702743 -6.692845
1.115409 0.4989021 6.47562
1.573772 3.05474 -5.454964
-5.588615 2.34887 4.442822
0.9901087 3.066457 -4.465311
1.673651 3.720509 -3.921221
-0.04171571 4.149391 4.313215
-5.782724 4.474021 0.4188895
-3.12869 4.524322 -2.802463
-5.459708 3.785014 4.496415
-2.341582 5.949041 0.4793934
0.6443177 1.127695 -3.730789
-2.943781 4.362199 -3.147836
-2.163621 5.938815 0.2108533
1.912138 1.649863 4.442821
1.496306 3.708025 4.659734
-4.031284 3.753644 5.211939
-5.782724 3.920561 1.340686
-6.090245 4.088043 4.443905
-5.798245 3.746585 -4.343809
-2.80561 0.4720268 4.508744
-1.197446 5.076149 2.338929
-2.545898 2.675148 -5.910922
-4.497929 1.923527 -3.730789
-5.847924 0.3968279 2.79623
1.17774 4.478471 -2.90014
-4.175297 5.059268 -1.662859
-5.782723 3.197463 1.056631
-5.782723 3.195678 -0.251146
-5.782724 0.492886 3.767788
-2.925468 3.899031 -4.134533
-4.506962 0.4679764 -3.730789
-4.381909 3.975944 4.682711
2.140817 3.347663 5.732117
-5.782724 4.159603 0.4837079
-5.0481 3.047113 -5.483139
0.4392301 3.589236 -4.343809
-0.8028591 3.559633 -4.262488
1.50093 3.200719 -4.915675
-5.702399 3.854724 -4.22892
-5.984073 5.49043 1.456379
-3.133385 3.24789 -4.74141
-5.782724 0.6909412 1.280624
-5.782724 3.566657 -2.73035
-6.268907 5.550654 -0.6160507
1.853103 5.442002 -0.8475139
-1.105541 0.4989038 -5.6365
-5.186879 2.644007 -6.025966
-2.685651 2.702743 -6.736361
-3.530003 5.46636 1.507656
-5.782724 0.02589572 -3.462886
-1.328754 4.462845 3.64546
0.9140539 4.192997 4.22032
-5.782724 1.783698 3.221505
2.649356 3.349391 6.813979
2.142411 5.76622 0.8688597
-5.782724 1.07519 0.6869404
2.504908 5.715561 0.9767811
-5.782724 4.440569 -0.5416175
0.4666854 1.11516 -3.730789
-4.300258 4.636647 3.275206
-5.334935 3.516563 -3.748854
-4.531736 4.404511 -3.057698
-5.782723 1.141991 -1.013178
-1.161058 3.405465 -4.159282
2.129341 3.178722 -4.05057
-1.576095 3.610012 4.867649
-1.038594 2.773985 -5.545789
2.138022 0.6411923 -3.730789
0.6620629 3.607879 -4.343809
-5.782723 2.693059 -3.630404
-0.1107107 1.288138 -3.730789
-5.782724 4.105929 0.4273632
-0.8493664 3.396742 4.442822
