-0.4412098 1.69303 3.28807
-0.4131352 1.765042 3.136244
-0.4874908 1.651035 3.266839
-0.4240796 1.748655 3.159545
-0.4338235 1.727168 3.180896
-0.4108712 1.764196 3.120619
-0.4246686 1.786091 3.157433
-0.4316841 1.805762 3.152951
-0.4252969 1.826022 3.15518
-0.3718806 1.843332 3.136383
-0.3545581 1.881532 3.098426
-0.4305924 1.806598 3.167464
-1.986909 -0.05847348 2.147781
-2.02474 -0.0747587 2.224778
-1.95983 -0.07600141 2.184652
-2.058551 -0.05658126 2.201296
-2.143282 -0.0752443 2.249228
-2.123725 -0.03694649 2.212389
-2.148454 -0.02804424 2.199524
-2.166601 -0.01383357 2.234524
-2.245582 -0.03868105 2.215626
-2.14391 -0.03531269 2.246974
-2.136117 -0.03418198 2.264842
-2.111972 -0.07883813 2.309957
-2.175852 0.004502523 2.251391
-2.213836 0.003147169 2.237961
-2.185141 0.02533435 2.268116
-2.106614 0.007862746 2.291639
-2.101499 -0.03250187 2.284966
-2.079221 -0.02963098 2.329637
-2.108257 -0.1065714 2.394393
-2.29317 0.0007612173 2.217796
-2.333892 -0.04020099 2.213313
-2.346564 0.05322338 2.230418
-2.256936 0.04215643 2.231204
-2.305646 0.08170696 2.235605
-2.225683 0.0441613 2.258023
-2.317957 0.0819535 2.243407
-2.365339 0.1073656 2.263165
-2.311452 0.09472685 2.246058
-2.294016 0.1204923 2.298388
-2.374057 0.1630294 2.275688
-2.30482 0.1663896 2.315937
-2.373563 0.2028527 2.271203
-2.239421 0.06293041 2.283815
-2.221985 0.08869583 2.336145
-2.207894 0.04746519 2.31162
-2.13165 0.03270582 2.339465
-2.151626 0.0919478 2.374162
-2.095438 0.004328981 2.359047
-2.140941 0.05230091 2.378656
-2.106178 -0.02608869 2.399937
-2.124676 0.01305699 2.388737
-2.089832 -0.06785057 2.365368
-2.076118 -0.08970042 2.418136
-2.03336 -0.1053262 2.395578
-2.114494 -0.06609851 2.403298
-2.1487 -0.0254373 2.42334
-2.161125 0.0539347 2.413242
-2.163987 0.09376807 2.409871
-2.160108 0.1326372 2.387529
-2.160776 0.1738278 2.407602
-2.160736 0.1725688 2.385276
-2.340066 0.2046411 2.293559
-2.193816 0.1374585 2.482381
-2.163608 0.2127169 2.387486
-2.170458 0.2208536 2.400453
-2.189976 0.1775866 2.482364
-2.206237 0.2217775 2.382419
-2.349513 0.2354558 2.309721
-2.313537 0.2220533 2.328459
-2.349753 0.2454832 2.398741
-2.378709 0.2441616 2.29462
-2.38545 0.2463626 2.291125
-2.421508 0.2598096 2.361969
-2.242296 0.2352244 2.453264
-2.269536 0.2577883 2.505693
-2.368018 0.267181 2.433318
-2.442135 0.2892111 2.400587
-2.206241 0.2168305 2.472283
-2.408638 0.2909994 2.422943
-2.462105 0.4904929 2.422795
-2.325875 0.4974298 2.507755
-2.462734 0.5304245 2.420542
-2.309271 0.2964728 2.492242
-2.224192 0.2185625 2.507987
-2.229368 0.2608156 2.548148
-2.243399 0.3001578 2.539185
-2.333145 0.8170992 2.494194
-2.469375 0.8101622 2.409234
-2.471125 0.8502021 2.409213
-2.222019 0.5024702 2.568128
-2.333773 0.8570308 2.491941
-2.483377 1.130481 2.409062
-2.230412 0.8222478 2.556799
-2.303777 0.9388989 2.514254
-2.416384 1.134058 2.453774
-2.485127 1.170521 2.409041
-2.48417 1.251112 2.416816
-2.497379 1.4508 2.40889
-2.243291 1.142458 2.554395
-2.245041 1.182498 2.554374
-2.358904 1.45752 2.489388
-2.498007 1.490732 2.406637
-2.289667 1.460881 2.529636
-2.360655 1.49756 2.489366
-2.504648 1.770469 2.395329
-2.367296 1.777298 2.478058
-2.256934 1.582356 2.543002
-2.505277 1.810401 2.393077
-2.403172 1.855481 2.453428
-2.50218 1.969586 2.372907
-2.208673 1.144139 2.57452
-2.253927 1.462453 2.547529
-2.295816 1.780442 2.513844
-2.399447 1.974735 2.435512
-2.485211 2.030247 2.333683
-2.22043 1.464241 2.569885
-2.306548 2.040602 2.423006
-2.467496 2.043489 2.297134
-2.396055 2.049129 2.332779
-2.413722 2.043285 2.18974
-2.306662 2.053036 2.33272
-2.377943 2.042361 2.207774
-2.342194 2.053827 2.045939
-2.288589 2.048764 2.207574
-2.234694 2.046019 2.010739
-2.270705 2.066864 1.901996
-2.23502 2.051144 2.279205
-2.19924 2.05022 2.297238
-2.270808 2.042174 2.440899
-2.252626 2.020521 2.495904
-2.264338 1.98178 2.522703
-2.261825 1.822054 2.531715
-2.222091 1.783369 2.545166
-2.224963 1.823517 2.547377
-2.226354 1.983135 2.536133
-2.127681 2.048373 2.333305
-2.181494 2.051073 2.440558
-2.216885 2.022093 2.513797
-2.14551 2.047565 2.279568
-2.056248 2.044118 2.548678
-2.055388 1.984265 2.64164
-2.162592 1.907282 2.594277
-1.967824 2.033204 2.641278
-2.148366 1.786296 2.576489
-2.118864 1.828341 2.603287
-2.10926 1.787543 2.587687
-2.017448 1.846076 2.667418
-1.98775 1.875643 2.69492
-2.181235 1.744576 2.556386
-2.141085 1.750707 2.565072
-2.21684 1.663249 2.545231
-2.17549 1.66428 2.551966
-2.221059 1.504173 2.567632
-2.148456 1.507208 2.601186
-2.065038 1.748426 2.592213
-2.152315 1.467709 2.612365
-2.144103 1.58653 2.585523
-2.033903 1.757918 2.618609
-2.036747 1.511491 2.645939
-2.004372 1.513387 2.670526
-1.963426 1.753683 2.657049
-2.216302 1.34423 2.572181
-2.050704 1.472966 2.677201
-2.077828 1.35095 2.652678
-2.210423 1.184178 2.574498
-1.97303 1.79448 2.672648
-1.983711 1.476543 2.721913
-2.103202 1.188894 2.628177
-1.951381 1.837283 2.715066
-1.972581 1.196372 2.724295
-1.954253 1.877431 2.717276
-1.948245 1.993972 2.695037
-2.138314 1.14739 2.612537
-2.170688 1.145494 2.58795
-2.199922 0.9439392 2.574627
-2.037824 1.152756 2.679605
-2.169626 0.8653532 2.593671
-2.004328 1.154544 2.70196
-1.94797 1.478115 2.739805
-2.180167 0.8249304 2.590333
-2.060685 0.8309731 2.664115
-1.948598 1.518046 2.737553
-2.188523 0.5042586 2.590484
-2.085789 0.5094072 2.653089
-2.154533 0.5458702 2.608355
-2.190632 0.4247201 2.601685
-2.013052 0.4326876 2.69338
-2.049735 0.4910132 2.672108
-1.977805 0.3944362 2.715757
-2.016283 0.3532574 2.706812
-2.178022 0.2640194 2.590613
-2.20652 0.2293536 2.561162
-2.200165 0.1813935 2.55268
-2.183436 0.1829172 2.57502
-2.205065 0.1394852 2.52144
-2.221679 0.05883609 2.516999
-2.198414 0.1413537 2.552701
-2.172277 0.1837232 2.586193
-2.183544 0.05547026 2.446709
-2.169513 0.0161281 2.455672
-2.166651 -0.02370527 2.459044
-2.200856 0.01695594 2.479085
-2.148072 -0.06536891 2.425593
-2.129809 -0.08954024 2.435947
-2.181649 -0.06463931 2.447887
-2.166533 0.1034269 2.581773
-2.189798 0.02090935 2.546071
-2.202825 -0.0002976294 2.484534
-2.166888 -0.0112044 2.503131
-2.218817 0.01900273 2.52037
-2.185075 0.005501993 2.53799
-2.156271 0.02175348 2.551683
-2.131109 -0.01212826 2.521164
-2.161417 0.06306233 2.5751
-2.13339 0.1276768 2.602861
-2.117823 0.06387643 2.577372
-2.103732 0.02264579 2.552847
-2.077653 0.00268591 2.502508
-2.082476 0.02247747 2.543936
-2.124259 -0.02026496 2.508198
-2.059741 0.003449598 2.466664
-2.107528 0.1875164 2.635368
-2.086047 0.1047604 2.582963
-2.159371 -0.06176842 2.492558
-2.075782 0.2293446 2.657702
-2.039413 0.1909849 2.677848
-2.10129 0.1470435 2.626463
-2.068916 0.1489402 2.65105
-2.035419 0.1507285 2.673406
-2.025933 0.1174181 2.657385
-2.043801 0.1191056 2.603506
-2.025811 0.1148779 2.567943
-1.936541 0.1213255 2.657326
-1.918551 0.1170977 2.621762
-1.989717 0.09398819 2.587103
-1.971928 0.09729209 2.6407
-1.882496 0.09870376 2.640782
-1.878064 0.1063429 2.553013
-1.878044 0.1057134 2.541851
-1.918154 0.09708742 2.533306
-1.953938 0.09306432 2.605137
-1.936183 0.1038109 2.568729
-1.953934 0.09801129 2.515273
-1.973085 0.104843 2.552927
-2.006582 0.1030547 2.530571
-1.989399 0.07896935 2.498366
-1.971331 0.06975014 2.463084
-2.024512 0.03746589 2.482726
-2.048728 0.01639719 2.42676
-1.953262 0.06053092 2.427803
-2.094657 -0.05053249 2.451728
-2.147877 -0.08032102 2.471229
-1.978238 0.01555746 2.39222
-2.003972 0.01584405 2.404475
-1.939625 -0.02301879 2.407903
-1.975859 -0.064414 2.394495
-1.968657 -0.09501223 2.382795
-2.024569 -0.02486348 2.398895
-2.022505 -0.08486914 2.400043
-2.004279 -0.1040713 2.365325
-2.065341 -0.06425195 2.422319
-2.087729 -0.06366064 2.439043
-2.206331 -0.06225776 2.49698
-2.202157 -0.04272496 2.486928
-2.269583 2.066756 1.899765
-2.268471 2.066963 1.903115
-2.242818 2.069194 1.93551
-2.221663 2.072173 1.982412
-2.165728 2.071797 1.960138
-2.181081 2.050851 1.992646
-2.135597 2.07391 1.989188
-2.234737 2.043568 2.100462
-2.145262 2.047431 2.01082
-2.091575 2.042324 2.082873
-2.091885 2.067237 1.991883
-2.07852 2.072795 1.95352
-2.109522 2.049003 2.028713
-2.055909 2.053834 2.010621
-2.071341 2.037879 2.042847
-2.037884 2.042164 2.065062
-2.038312 2.074564 1.973649
-2.037994 2.059545 1.884912
-2.053787 2.06884 1.87652
-2.011265 2.068189 1.853118
-2.02009 2.050415 2.028795
-2.002336 2.061161 1.992387
-1.984389 2.054482 2.046547
-2.000982 2.041131 2.080864
-2.10973 2.046641 2.297601
-1.966442 2.047803 2.100707
-2.056122 2.046525 2.369373
-1.966595 2.062733 2.01028
-1.984464 2.06442 1.956401
-1.948649 2.056054 2.06444
-1.984436 2.047084 2.226134
-1.984602 2.047173 2.405299
-1.919404 2.043301 2.096566
-1.91279 2.050139 2.082755
-1.930776 2.059313 2.028454
-1.94837 2.043531 1.975561
-1.966395 2.055201 1.92112
-1.984806 2.049757 2.584323
-1.984067 2.04441 1.867945
-1.930772 2.06426 1.93859
-1.912826 2.057581 1.99275
-1.913003 2.042829 2.441507
-1.859272 2.040174 2.423837
-1.931193 2.054589 2.56623
-2.001857 2.041106 1.814349
-2.06155 2.066765 1.841909
-1.894918 2.053398 2.046769
-1.859099 2.049978 2.064944
-1.876771 2.039187 2.01177
-1.912877 2.045236 2.262202
-1.870201 2.043574 2.087681
-1.84127 2.050787 2.118681
-2.055823 2.058737 1.831174
-2.120639 2.060857 1.75367
-2.03799 2.064492 1.795048
-2.05574 2.058692 1.741592
-2.111543 2.056214 1.668843
-1.733892 2.045519 2.172923
-1.787501 2.045635 2.101152
-1.831095 2.044821 2.09888
-1.836644 2.043474 2.076549
-1.823202 2.041567 2.0834
-1.733766 2.047926 1.993618
-1.698112 2.044595 2.190957
-1.71598 2.046283 2.137079
-1.66225 2.043627 2.119408
-1.590521 2.046637 1.886446
-1.68024 2.047855 2.154971
-1.858812 2.047349 1.796337
-1.6979 2.051905 1.832205
-1.894757 2.048362 1.957469
-1.912547 2.045058 1.903872
-1.876724 2.046586 1.832182
-1.930336 2.041754 1.850275
-1.991524 2.025158 1.79511
-1.94789 2.023476 1.797523
-1.967963 2.022884 1.748248
-1.965876 2.032651 1.743222
-1.913311 2.027652 1.817507
-1.894788 2.060752 1.7776
-1.930332 2.046701 1.760411
-1.84094 2.050609 1.760352
-1.947965 2.033415 1.707377
-1.983548 2.02186 1.690048
-1.979021 2.018931 1.681263
-1.916516 2.022941 1.7349
-1.878532 2.024296 1.74833
-1.934366 2.021525 1.714791
-1.822989 2.048877 1.724648
-1.858808 2.052296 1.706473
-1.874044 2.023863 1.739404
-1.898565 2.021209 1.699196
-1.894313 2.03575 1.689425
-1.911948 2.01999 1.681324
-1.957705 2.016874 1.638864
-2.001652 2.038522 1.635324
-1.912181 2.037438 1.635547
-1.91972 2.018229 1.652294
-1.948079 2.045849 1.617091
-1.876205 2.024035 1.654285
-1.98447 2.014436 1.603119
-2.019167 2.017748 1.582713
-2.001177 2.01352 1.54715
-2.055418 2.04862 1.56299
-2.043609 2.010102 1.542787
-2.036721 1.999469 1.529961
-1.965397 2.012596 1.565184
-1.930206 2.049108 1.581105
-1.894505 2.053176 1.598857
-1.840857 2.050564 1.670769
-1.925737 2.051778 1.53841
-1.963711 2.050108 1.519399
-1.76905 2.048583 1.438089
-1.554781 2.048209 1.904339
-1.608759 2.050998 2.190757
-1.823493 2.03925 2.44187
-1.769963 2.044125 2.51336
-1.841522 2.045973 2.477293
-1.752291 2.054916 2.566535
-1.895414 2.053665 2.584264
-1.877223 2.041905 2.459541
-1.79361 2.041496 2.739668
-1.933206 2.034884 2.661402
-1.776314 2.004977 2.797749
-1.940675 1.797006 2.708398
-1.917709 1.758057 2.721834
-1.915825 1.638262 2.728593
-1.780398 1.766145 2.826888
-1.882996 1.681241 2.771021
-1.96392 1.713859 2.661533
-1.932533 1.636109 2.69509
-1.91398 1.519727 2.757677
-1.941373 1.55722 2.719679
-1.976446 1.513221 2.70418
-0.3047372 -0.1145518 2.637736
-0.2992846 -0.1051101 2.626015
-0.3400064 -0.1460723 2.621533
-0.3047331 -0.1096048 2.547872
-0.3388845 -0.1461806 2.619301
-0.3032082 -0.06705698 2.591387
-0.3072727 -0.0245974 2.634898
-0.3577568 -0.1518719 2.568077
-0.3239405 -0.02800955 2.57907
-0.2955599 0.01414344 2.608099
-0.2976829 0.01058299 2.545586
-0.3028592 0.05283608 2.585747
-0.2691915 0.04927376 2.513221
-0.3082235 -0.02983982 2.542247
-0.2835714 -0.03127714 2.509898
-0.2762417 -0.07091402 2.515506
-0.2797321 0.008850952 2.509882
-0.2432023 -0.03454473 2.440727
-0.2707164 0.006725949 2.469705
-0.2534745 0.04744349 2.476398
-0.2899237 0.0883212 2.500903
-0.2373545 0.08826927 2.485323
-0.2216475 0.08675374 2.454082
-0.2533154 0.03993407 2.432029
-0.259467 0.004699188 2.430646
-0.2415464 0.003911388 2.411686
-0.2691457 -0.09310307 2.475337
-0.2303473 0.003458356 2.400533
-0.2354431 0.04319348 2.396044
-0.2152586 0.04155969 2.361458
-0.2174138 0.03646999 2.360621
-0.2957174 -0.1117298 2.507694
-0.3397275 -0.1585954 2.532654
-0.3041008 -0.1445894 2.460261
-0.2271363 0.08351805 2.398264
-0.2559766 -0.07506578 2.43627
-0.233951 -0.05164409 2.401395
-0.2457154 0.1251817 2.431715
-0.2261591 0.1634795 2.394876
-0.2591382 0.1252217 2.436168
-0.2363111 0.09315247 2.48281
-0.3083417 0.1249489 2.445053
-0.3049759 0.1246242 2.438359
-0.3105755 0.1248507 2.443935
-0.2193772 0.1612563 2.353581
-0.2821537 -0.1161763 2.425103
-0.3566925 -0.2143096 2.482014
-0.392437 -0.2208284 2.553986
-0.3653135 -0.2346683 2.478668
-0.4124745 -0.2288627 2.594716
-0.3755897 -0.1576271 2.604203
-0.4192463 -0.2269543 2.63043
-0.4241874 -0.2676036 2.621516
-0.3932264 -0.1758609 2.641033
-0.3577256 -0.1642616 2.747946
-0.4177214 -0.1844064 2.673946
-0.4298675 -0.2648591 2.671742
-0.4132639 -0.1838952 2.681764
-0.4015372 -0.2211324 2.728677
-0.3999318 -0.1811025 2.727543
-0.4284231 -0.2197933 2.759908
-0.3788065 -0.1771792 2.791189
-0.4006167 -0.2149457 2.838072
-0.339936 -0.1609577 2.801542
-0.3229256 -0.1003189 2.717527
-1.21965 -0.4259327 2.167646
-1.229865 -0.4174713 2.187308
-1.194007 -0.4233866 2.205623
-1.200547 -0.4287173 2.112967
-1.243778 -0.3856163 2.178767
-1.230295 -0.3875448 2.140826
-1.221239 -0.3909288 2.078324
-1.231 -0.3401483 2.09336
-1.213879 -0.4315099 2.067188
-1.286617 -0.3547904 2.026896
-1.302028 -0.4380658 1.975574
-1.356089 -0.3431763 1.985803
-1.33696 -0.4197801 1.954323
-1.276173 -0.4421293 1.896343
-1.38199 -0.4005201 1.953156
-1.424597 -0.3216875 1.941915
-1.41456 -0.3207733 1.955319
-1.387241 -0.2804005 1.953092
-1.276654 -0.2760097 2.000076
-1.375214 -0.2616255 1.927419
-1.249496 -0.2985291 2.037229
-1.436149 -0.3654643 1.879413
-1.45024 -0.3242336 1.903938
-1.258838 -0.1979868 1.957634
-1.35797 -0.2184345 1.88918
-1.23237 -0.2478509 1.998567
-1.214463 -0.2520342 2.052587
-1.182869 -0.1952761 1.984494
-1.160968 -0.2397157 2.034071
-1.178133 -0.2878982 2.072592
-1.471889 -0.3670361 1.861521
-1.482615 -0.3261302 1.879351
-1.487435 -0.3705565 1.803461
-1.433277 -0.4056124 1.877203
-1.462796 -0.3753893 1.844091
-1.409877 -0.4028497 1.919643
-1.426388 -0.4162448 1.864378
-1.37274 -0.4188562 1.93629
-1.39053 -0.4221601 1.882693
-1.354986 -0.4081096 1.899882
-1.372422 -0.4338751 1.847552
-1.31901 -0.4215121 1.918619
-1.337074 -0.407346 1.864037
-1.301295 -0.4082698 1.882071
-1.295135 -0.4437512 1.872884
-1.310681 -0.4472716 1.814825
-1.319124 -0.409078 1.828333
-1.341934 -0.4492765 1.788006
-1.354746 -0.418137 1.810863
-1.363129 -0.4509966 1.763429
-1.372222 -0.4414067 1.758392
-1.381709 -0.409333 1.79688
-1.392958 -0.4073063 1.835939
-1.408908 -0.3880281 1.826984
-1.390918 -0.3922559 1.791421
-1.44457 -0.3945915 1.809373
-1.387278 -0.4100507 1.785712
-1.459971 -0.4102535 1.80239
-1.425913 -0.4412465 1.776203
-1.408041 -0.4379871 1.740218
-1.497511 -0.4369031 1.739995
-1.57159 -0.4173688 1.707405
-1.47984 -0.426112 1.79317
-1.515816 -0.4127095 1.774432
-1.56773 -0.3778702 1.696226
-1.485685 -0.4105964 1.803482
-1.516444 -0.3727779 1.772179
-1.563538 -0.2935123 1.769864
-1.528291 -0.3317638 1.792241
-1.500404 -0.3294342 1.825754
-1.451396 -0.2475179 1.843619
-1.446656 -0.267265 1.891774
-1.431302 -0.246319 1.859265
-1.429687 -0.2066039 1.85255
-1.532285 -0.2915074 1.796682
-1.561923 -0.2537972 1.763148
-1.523938 -0.2524418 1.776577
-1.564301 -0.1738257 1.760873
-1.497308 -0.170249 1.805585
-1.574023 -0.1255409 1.77605
-1.430315 -0.1666723 1.850296
-1.473415 -0.127663 1.84354
-1.394574 -0.1651004 1.868189
-1.44104 -0.1257664 1.868127
-1.376231 -0.1917897 1.833893
-1.363322 -0.1630955 1.895008
-1.387164 -0.2072552 1.829147
-1.424591 -0.246339 1.857039
-1.392964 -0.2674251 1.873963
-1.371508 -0.2071971 1.825812
-1.340883 -0.1652606 1.850378
-1.485106 -0.09663177 1.864165
-1.585752 -0.09201396 1.796534
-1.628185 -0.09543203 1.792171
-1.6457 -0.116206 1.73956
-1.322583 -0.1944011 1.905806
-1.333523 -0.2058417 1.839242
-1.340059 -0.2176708 1.853335
-1.187985 -0.1549115 1.991167
-1.150495 -0.1933795 2.009081
-1.166336 -0.112109 2.033585
-1.124223 -0.230765 2.04931
-1.153367 -0.1532314 2.011291
-1.13284 -0.1103206 2.05594
-1.11987 -0.151443 2.033647
-1.097593 -0.1485721 2.078318
-1.0737 -0.1059861 2.116273
-1.091849 -0.2288683 2.073898
-1.082182 -0.06529675 2.12964
-1.092947 -0.02189515 2.14733
-1.088581 -0.01978795 2.227845
-1.056342 -0.07522925 2.16832
-1.042447 -0.1039813 2.143091
-1.033965 -0.1446706 2.129724
-1.022612 -0.2255081 2.114146
-1.028715 -0.2647902 2.129788
-1.038749 -0.05944673 2.221213
-1.005585 -0.1025176 2.158753
-0.9868712 -0.2239363 2.132039
-1.022135 0.02120242 2.225654
-1.038481 0.06296431 2.260223
-1.022763 0.06113403 2.223401
-1.106731 -0.279763 2.108096
-1.124564 -0.2855182 2.144222
-1.048301 -0.3021438 2.183371
-0.9934681 -0.3030417 2.152166
-0.9939618 -0.342865 2.15665
-1.035876 -0.3815158 2.193468
-0.9805792 -0.3416461 2.174522
-0.9899677 -0.3831214 2.152209
-0.9437974 -0.3376645 2.234834
-1.019531 -0.4232777 2.158899
-0.9837298 -0.4235943 2.143304
-0.9380532 -0.4179608 2.230414
-0.9034347 -0.4162807 2.250539
-0.8862129 -0.3749336 2.268394
-0.6611052 -0.4045199 2.391409
-0.6617334 -0.3645883 2.389156
-0.6298525 -0.402515 2.418228
-0.6304807 -0.3625834 2.415975
-0.63986 -0.1224525 2.413614
-0.6294091 -0.3611179 2.44165
-0.6711127 -0.1244574 2.386796
-0.6488958 -0.119698 2.464954
-0.6428924 -0.3591894 2.47959
-0.6646128 -0.1178677 2.501776
-0.6809581 -0.07610584 2.536346
-0.6517579 -0.07986464 2.461583
-0.7000063 -0.002020007 2.523175
-0.916808 -0.1358934 2.25262
-0.7772121 -0.1292812 2.330885
-0.6739849 -0.08430926 2.389005
-0.6512139 -0.04161501 2.429192
-0.7789623 -0.08924134 2.330864
-0.6608176 -0.0008173882 2.444791
-0.6746433 -0.04343341 2.403496
-0.6648116 0.03943897 2.449232
-0.7818344 -0.04909322 2.333074
-0.8470774 -0.09270981 2.288384
-0.9174363 -0.09596178 2.250367
-0.8420175 -0.05831092 2.275255
-0.9203084 -0.05581367 2.252577
-0.6625677 0.03922247 2.444769
-0.6686509 -0.0006891135 2.449249
-0.699374 -0.03700465 2.435564
-0.735193 -0.03358505 2.417389
-0.717364 -0.03277688 2.471127
-0.7529041 -0.0418804 2.364074
-0.8250524 -0.002596788 2.325895
-0.8539435 -0.01230534 2.295035
-0.9355217 -0.01447478 2.279333
-0.8432388 0.0141096 2.360754
-0.7702826 -0.005316461 2.395575
-0.7587574 -0.03625872 2.554115
-0.7269707 0.004310517 2.554124
-0.7706049 0.004755409 2.574177
-0.8018577 0.00275054 2.547358
-0.7821869 -0.03807712 2.528419
-0.849909 0.001425219 2.537268
-0.7709767 -0.03760815 2.48922
-0.8249428 -0.0199779 2.506045
-0.8845577 0.0006893456 2.533887
-0.860801 -0.01406258 2.48773
-0.7736484 -0.004991703 2.40227
-0.7892768 -0.008467621 2.433792
-0.8429288 -0.01080317 2.451744
-0.8791011 0.01507795 2.432303
-0.9510179 0.03444025 2.484832
-0.9039364 0.03238937 2.390968
-0.8614252 0.03081599 2.395613
-0.8970871 0.02425268 2.378002
-0.9776611 0.02946216 2.359646
-0.9503423 0.001906849 2.307498
-1.007164 -0.01258257 2.332848
-0.9857293 -0.02212654 2.290872
-0.953805 -0.05760204 2.230221
-0.9908624 0.02257779 2.24131
-1.009441 0.06424144 2.274761
-0.9898852 0.1025392 2.237922
-0.948689 -0.09796665 2.223548
-0.9560186 -0.05832977 2.21794
-0.9729116 0.02084576 2.205606
-0.9671069 -0.06133894 2.167698
-0.9741682 0.100709 2.2011
-0.9524587 0.141623 2.21003
-0.9702917 0.1358678 2.246156
-0.9491827 -0.13779 2.228032
-0.9664786 -0.1012705 2.169951
-0.9345905 0.1399354 2.263908
-0.9874963 0.0901811 2.284536
-0.9633373 -0.3009286 2.181216
-0.9652221 -0.1811338 2.174457
-0.9658504 -0.1412022 2.172204
-0.9959812 -0.1433153 2.143154
-0.9776475 -0.1017618 2.16436
-1.007396 -0.06058931 2.192219
-0.9627539 0.01798301 2.152035
-0.9657808 0.1385156 2.15867
-1.026882 0.1808306 2.215523
-1.040365 0.1827591 2.253464
-1.043227 0.2225925 2.250093
-1.024928 0.3407535 2.208748
-0.965267 0.1777094 2.143023
-0.9709572 0.1807687 2.198831
-0.952498 0.1441187 2.209889
-0.9670172 0.2177493 2.143001
-0.9168361 0.150682 2.2275
-0.9133525 0.1428701 2.221228
-0.9777693 0.1839361 2.25687
-0.9348654 0.1574055 2.262923
-0.8720427 0.1451597 2.250289
-0.8877597 0.14699 2.287111
-0.99177 0.2223341 2.231163
-0.9733897 0.3379771 2.145168
-0.9958886 0.3420306 2.223286
-1.009566 0.3589113 2.21559
-1.038411 0.342682 2.246689
-1.027438 0.3556519 2.251576
-1.03173 0.3436063 2.261206
-1.009721 0.2240661 2.266867
-0.9891063 0.1925059 2.278763
-0.9533266 0.191582 2.296796
-0.9175076 0.1881624 2.314971
-0.8806285 0.1173582 2.336947
-0.9599796 0.18724 2.310467
-1.004695 0.1865342 2.310426
-1.024694 0.1760041 2.351297
-0.9356548 0.2023731 2.349971
-0.9477996 0.1910852 2.375221
-0.9265233 0.1902874 2.355148
-0.9889926 0.1800717 2.369049
-1.006943 0.1818037 2.404753
-1.042527 0.170249 2.387424
-1.063025 0.1918486 2.420883
-0.9083976 0.1075414 2.303856
-0.9517167 0.08925724 2.302569
-0.9694318 0.07601492 2.339118
-0.8793887 0.1097628 2.335138
-0.8804714 0.1073753 2.33751
-0.8802006 0.08495826 2.42836
-0.9711244 0.1783842 2.422927
-0.7910831 0.1063358 2.427315
-0.8619004 0.05581773 2.483787
-0.8402826 0.1110099 2.346336
-0.8450844 0.1314087 2.354136
-0.8112737 0.1132313 2.377618
-0.863153 0.1406279 2.389417
-0.8274125 0.1421998 2.40731
-0.7916721 0.1437716 2.425203
-0.7822648 0.1154526 2.4089
-0.899129 0.1540304 2.37068
-0.845324 0.1414361 2.443155
-0.8810645 0.1398642 2.425262
-0.9348342 0.1450159 2.442792
-0.8813434 0.1523873 2.51414
-0.8545753 0.1585354 2.482487
-0.9889181 0.1701333 2.459195
-0.9170838 0.1508155 2.496248
-0.9706179 0.1409927 2.514622
-1.031833 0.1957419 2.481189
-1.020584 0.1937152 2.44213
-1.025365 0.2134845 2.438767
-0.88217 0.2023241 2.556115
-0.8993334 0.1566151 2.549704
-0.8994925 0.1641245 2.594072
-0.9349993 0.1451048 2.621957
-0.8543636 0.2071717 2.634279
-0.864614 0.2230758 2.563935
-0.8468243 0.2263797 2.617532
-0.8110446 0.2254559 2.635566
-0.7751824 0.2244875 2.564017
-0.7574672 0.2377298 2.527468
-0.8418009 0.1990565 2.486944
-0.810958 0.2303583 2.456119
-0.7392808 0.2210234 2.492609
-0.7981064 0.1967231 2.433403
-0.7997219 0.157008 2.440119
-0.7590002 0.1979702 2.444602
-0.7277474 0.1999751 2.471421
-0.7583719 0.1580386 2.446855
-0.7259972 0.1599352 2.471442
-0.7435148 0.2033791 2.536149
-0.7378631 0.1361243 2.407814
-0.7202305 0.1494111 2.460848
-0.7294838 0.1640369 2.545112
-0.7022446 0.1402363 2.515149
-0.7519022 0.1655725 2.578579
-0.7387744 0.183632 2.584304
-0.7222348 0.126918 2.595371
-0.6663038 0.1342765 2.443882
-0.67285 0.1215254 2.486022
-0.6658366 0.09938087 2.535435
-0.7330613 0.1157255 2.400015
-0.7016122 0.1052517 2.427538
-0.6593366 0.1186527 2.431337
-0.6659111 0.1093193 2.44529
-0.719563 0.1069837 2.463242
-0.683744 0.1035642 2.481416
-0.6901222 0.08175214 2.496072
-0.7728223 0.07969094 2.482602
-0.7903018 0.05147427 2.519995
-0.7367284 0.05880127 2.501762
-0.7546792 0.06053331 2.537466
-0.7187032 0.04713082 2.556203
-0.7009487 0.0578774 2.519795
-0.6588694 0.08375701 2.522891
-0.6544321 0.08489772 2.541872
-0.6653261 0.06693644 2.537266
-1.092145 0.1930894 2.450995
-1.09054 0.2331193 2.44986
-1.061067 0.2094169 2.421015
-1.063664 0.2320949 2.424211
-1.097636 0.2553083 2.490029
-1.031289 0.2339915 2.448798
-1.043827 0.2476609 2.472641
-1.034695 0.2355753 2.477818
-1.077217 0.2362267 2.501221
-1.115626 0.2595361 2.525593
-1.079178 0.2161849 2.54602
-1.065501 0.1993042 2.553715
-1.044688 0.1577388 2.521383
-1.024388 0.1461444 2.532152
-1.006559 0.1469526 2.585889
-1.042221 0.1403892 2.568278
-1.024392 0.1411974 2.622016
-1.046455 0.1227449 2.611818
-1.059938 0.1246734 2.649759
-0.9710147 0.161003 2.603078
-0.9886906 0.145265 2.639768
-0.9582456 0.1274123 2.669945
-0.9707831 0.1410817 2.693787
-0.9172097 0.1484087 2.675553
-0.9351212 0.147645 2.711398
-0.9426998 0.1309327 2.728004
-0.9974726 0.1299422 2.725722
-1.042343 0.1429294 2.65772
-1.03101 0.1294128 2.725691
-1.024553 0.1462334 2.711317
-0.2455433 -0.1620899 2.311298
-0.2467256 -0.1600932 2.347017
-0.2326904 -0.1265603 2.316036
-0.2583982 -0.200093 2.351492
-0.2471488 -0.2021198 2.312433
-0.31217 -0.1974149 2.413953
-0.2684349 -0.1330792 2.388008
-0.2842219 -0.2636651 2.341592
-0.3017367 -0.284439 2.288981
-0.2491948 -0.07728903 2.394974
-0.3206339 -0.2277565 2.41117
-0.234106 -0.0391877 2.355899
-0.2244621 -0.08124431 2.317975
-0.228033 0.00103863 2.357001
-0.2234849 -0.001282855 2.314587
-0.2040092 0.03953292 2.322399
-0.2073951 0.04048717 2.340256
-0.3108329 -0.2797961 2.373809
-0.3690722 -0.2773144 2.434034
-0.3034227 -0.3219509 2.334766
-0.3463178 -0.3648998 2.295678
-0.3368095 -0.3284382 2.273482
-0.3798144 -0.3666882 2.273322
-0.3898312 -0.3682319 2.248755
-0.3982185 -0.4060385 2.291185
-0.4026055 -0.4087529 2.244298
-0.3146721 -0.3199241 2.373825
-0.341558 -0.3185851 2.405056
-0.322979 -0.3602487 2.371605
-0.338696 -0.3584184 2.408427
-0.3662101 -0.3171478 2.437405
-0.4143384 -0.3916184 2.55126
-0.3713865 -0.2748947 2.477566
-0.4088936 -0.3114604 2.550108
-0.4322891 -0.3898863 2.586964
-0.473367 -0.3441692 2.698532
-0.470505 -0.3840025 2.701904
-0.4666859 -0.343245 2.71305
-1.241444 -0.4439114 1.855073
-1.229221 -0.437615 1.830104
-1.235804 -0.4453969 1.827172
-1.195596 -0.4436285 1.847301
-1.229264 -0.4400662 1.919827
-1.121921 -0.4378909 1.884064
-1.182194 -0.4430391 1.854011
-1.193563 -0.4359986 1.93758
-1.194645 -0.4383861 1.939952
-1.104011 -0.4396007 1.893152
-0.107964 0.2503297 2.480897
-0.0710513 0.2502196 2.468652
-0.06149799 0.2109957 2.480959
-0.07614713 0.2899547 2.464162
-0.05980186 0.2481928 2.429593
-0.05819636 0.2882227 2.428458
-0.04765575 0.3286455 2.431796
-0.08790401 0.3281361 2.433992
-0.1051862 0.2886776 2.449624
-0.03193876 0.3268152 2.394974
-0.0614715 0.2857147 2.384921
-0.1241381 0.2867409 2.420584
-0.1246317 0.2469176 2.425068
-0.147628 0.286811 2.428376
-0.1325393 0.3249123 2.389301
-0.15049 0.3266444 2.425005
-0.1079375 0.3250487 2.384858
-0.1148654 0.3381769 2.397543
-0.132934 0.3473961 2.432825
-0.09715427 0.3464722 2.450859
-0.04377721 0.3662779 2.431921
-0.0730167 0.3725324 2.506543
-0.04157263 0.3685571 2.427317
-0.07987509 0.3822206 2.502625
-0.06384998 0.3656862 2.382646
-0.0995904 0.3641143 2.364753
-0.1321838 0.3049243 2.345636
-0.02598351 0.3745287 2.395653
-0.1353208 0.3622277 2.341279
-0.006389998 0.4078573 2.403888
-0.1403122 0.3231521 2.360271
-0.1413938 0.3220014 2.340177
-0.04413062 0.3887394 2.430654
-0.09801815 0.4013782 2.447761
-0.1338764 0.4072935 2.429445
-0.07408192 0.4464154 2.395992
-0.04332284 0.4085969 2.427295
-0.007018275 0.4477889 2.401635
-0.1075785 0.4446271 2.373636
-0.1590258 0.4445707 2.386985
-0.116711 0.455476 2.390925
-0.1704807 0.4606276 2.408455
-0.04395111 0.4485286 2.425043
-0.1525732 0.4564444 2.462474
-0.1171469 0.477982 2.47924
-0.189099 0.504787 2.441765
-0.1665468 0.4901878 2.487422
-0.09923544 0.4787457 2.443395
-0.06345575 0.4778218 2.461429
-0.02336355 0.4895508 2.436204
-0.05024942 0.4908899 2.467435
-0.05534526 0.530625 2.462945
-0.02175805 0.5295807 2.435069
0.0006602757 0.5280451 2.401602
-0.0246201 0.569414 2.431698
-0.003458333 0.6477417 2.393725
-0.0692617 0.4908417 2.471883
-0.09723929 0.4913448 2.488601
-0.1234969 0.4527523 2.522085
-0.1458347 0.4517699 2.510902
-0.106255 0.4934698 2.528778
-0.1355297 0.507167 2.513395
-0.1447769 0.5292134 2.462864
-0.1581997 0.5292534 2.467316
-0.1442429 0.5677777 2.436054
-0.1899236 0.5571972 2.438808
-0.1799834 0.5662059 2.418161
-0.1011427 0.5287685 2.442811
-0.1006491 0.5685918 2.438326
-0.0581771 0.5695142 2.44283
-0.09035386 0.6922318 2.496322
-0.1437996 0.6091748 2.459476
-0.02748216 0.6092474 2.428327
-0.04892326 0.6907444 2.458407
-0.1732334 0.6303814 2.488462
-0.2377794 0.6100846 2.501808
-0.004365944 0.847498 2.383578
-0.004017 0.967391 2.377938
-0.2090565 0.628854 2.560152
-0.2133085 0.6143127 2.569922
-0.02196777 0.9691231 2.413641
-0.02929738 1.00876 2.408034
-0.004645278 1.007323 2.375684
-0.05841703 1.010001 2.438146
-0.0544972 1.047611 2.393479
-0.07922985 1.051566 2.470479
-0.08138307 1.04895 2.42471
-0.08655947 1.091203 2.464871
-0.08996923 1.16845 2.414596
-0.09220504 1.165878 2.45841
-0.07063451 1.213672 2.500546
-0.09953262 1.207989 2.40787
-0.07555009 1.246505 2.418059
-0.04965049 1.166756 2.373331
-0.01609349 1.166656 2.362199
-0.01672177 1.206588 2.359946
-0.07201847 1.166718 2.378892
-0.07488052 1.206551 2.375521
-0.008435083 1.247542 2.373329
-0.04803492 1.206471 2.366615
0.0005201634 1.247305 2.36664
-0.01359133 1.289165 2.402328
0.01462071 1.487681 2.362068
-0.007797614 1.489216 2.395536
-0.08979236 1.575615 2.529372
0.01399243 1.527612 2.359815
-0.1228319 1.539245 2.604152
-0.1269505 1.658942 2.596275
-0.04621227 1.652407 2.457932
-0.08881514 1.655576 2.525985
-0.002003896 1.689267 2.388744
-0.04523505 1.732368 2.454544
0.01434138 1.647506 2.354175
0.02499978 1.680441 2.357936
-0.0743547 1.733609 2.484657
0.02039429 1.688361 2.366439
0.01174771 1.80975 2.389813
0.03416603 1.808214 2.356346
-0.006831342 1.851413 2.423264
0.03577153 1.848244 2.355211
-0.08623242 1.775568 2.521462
-0.0464916 1.812232 2.450038
-0.05934654 1.774228 2.490232
-0.06667615 1.813865 2.484624
-0.09132825 1.815303 2.516973
-0.09865785 1.85494 2.511365
-0.06953821 1.853699 2.481253
-0.01639473 1.890952 2.416538
-0.1025777 1.817329 2.556032
-0.140713 1.820695 2.626322
-0.08651175 1.935392 2.513569
-0.1073246 1.976958 2.545902
-0.09552742 1.937517 2.553746
-0.1179457 1.939053 2.587214
-0.1233905 1.858895 2.588365
-0.1509047 1.900165 2.617342
-0.1458088 1.86043 2.621832
-0.1751248 1.87415 2.65124
-0.143924 1.740636 2.628591
-0.1647368 1.782201 2.660924
-0.1499971 1.700409 2.627489
-0.1465067 1.620644 2.633113
-0.1515981 1.518025 2.635532
-0.178025 1.702486 2.672114
-0.1432261 1.980422 2.61731
-0.1074152 1.97979 2.596133
-0.1147347 2.019112 2.584944
-0.2258382 1.824516 2.717777
-0.1940012 1.863511 2.68988
-0.1557908 1.500358 2.634281
-0.1545544 1.421124 2.649949
-0.1939261 1.503724 2.70457
-0.2106203 1.425593 2.74478
-0.2320614 1.50709 2.77486
-0.2131334 1.585319 2.735768
-0.2377855 1.586757 2.768117
-0.2051755 1.505751 2.743629
-0.2259984 1.547631 2.781543
-0.2573418 1.548459 2.804956
-0.2448467 1.748805 2.801519
-0.2607781 1.550987 2.85072
-0.2692195 1.590417 2.841762
-0.2765491 1.630054 2.836154
-0.2449273 1.751323 2.84617
-0.2589583 1.790665 2.837207
-0.2097698 1.797751 2.727154
-0.2456714 1.801215 2.798562
-0.2635788 1.805398 2.744543
-0.2672587 1.825689 2.750111
-0.2511186 1.865885 2.747873
-0.2092245 1.905165 2.722218
-0.2531645 1.990716 2.830415
-0.2907558 2.032331 2.868314
-0.2217305 1.987055 2.756771
-0.1650162 1.942026 2.65303
-0.1822581 1.901308 2.646337
-0.1598499 1.900087 2.61845
-0.3392694 2.059403 2.873419
-0.2137358 2.049819 2.712932
-0.2178913 2.027183 2.756754
-0.1544756 1.982448 2.656368
-0.3571376 2.06109 2.81954
-0.1835952 1.983689 2.686481
-0.1842235 2.023621 2.684228
-0.3213971 2.062662 2.837433
-0.1416206 2.020452 2.616175
-0.1777557 2.041363 2.641806
-0.2677764 2.077388 2.639612
-0.1597657 2.037136 2.606243
-0.2631951 2.06515 2.732135
-0.2319574 2.073968 2.657787
-0.2093226 2.059324 2.613861
-0.2317963 2.068932 2.568486
-0.2675367 2.06736 2.550593
-0.3390568 2.066712 2.514667
-0.3926262 2.064332 2.443036
-0.2495859 2.065628 2.514889
-0.215893 2.054938 2.537949
-0.3209409 2.064891 2.299798
-0.2315093 2.066303 2.299879
-0.1420384 2.065219 2.300102
-0.2137629 2.067156 2.443199
-0.1777476 2.051257 2.462078
-0.1418542 2.037899 2.570398
-0.1599932 2.062004 2.42567
-0.106302 2.061844 2.407859
-0.1598402 2.047074 2.516097
-0.1422036 2.065308 2.479267
-0.1061883 2.04941 2.498145
-0.1101866 2.016791 2.54253
-0.07036525 2.050937 2.426455
0.008058602 2.046822 2.331645
-0.02614309 2.01182 2.430981
-0.01628138 2.02582 2.410053
0.01938455 2.03733 2.3378
0.009234597 1.969476 2.380801
0.02170133 1.890082 2.346107
0.01949675 1.887803 2.350711
0.01950682 1.887488 2.34513
-0.01408241 1.886059 2.417938
-0.3115903 0.19716 2.305477
-0.328977 0.2365122 2.297628
-0.2769013 0.1966369 2.286533
-0.309865 0.2321761 2.259833
-0.3127663 0.2745052 2.256321
-0.3105325 0.2746035 2.257439
-0.3288367 0.298797 2.291876
-0.3744154 0.3542339 2.266271
-0.3647383 0.3022611 2.363284
-0.3474903 0.3503991 2.235181
-0.4170183 0.3574032 2.334325
-0.4463934 0.442176 2.424675
-0.4564101 0.4406323 2.400108
-0.4047916 0.4353379 2.291878
-0.4346201 0.4790283 2.364388
-0.4219263 0.5220674 2.413495
-0.3646276 0.5140285 2.255038
-0.3433413 0.512916 2.229384
-0.4352484 0.5189599 2.362135
-0.4134583 0.557356 2.326415
-0.3378965 0.5930739 2.228233
-0.4046038 0.5602669 2.375538
-0.4225546 0.561999 2.411242
-0.387244 0.5934973 2.382654
-0.3828137 0.598663 2.339818
-0.3340593 0.6307285 2.273148
-0.31603 0.624005 2.237726
-0.2801325 0.615594 2.256182
-0.2961535 0.6370753 2.286296
-0.3006412 0.6375083 2.295222
-0.2623428 0.6188979 2.309779
-0.2284415 0.5978878 2.283029
-0.2329896 0.6002092 2.325443
-0.2420053 0.6023342 2.36562
-0.2802543 0.6181342 2.345623
-0.2626217 0.631421 2.398657
-0.2465534 0.6046557 2.408034
-0.2982877 0.6199107 2.47091
-2.053052 2.045864 1.469085
-2.036795 2.009408 1.439816
-2.003839 2.045822 1.454619
-1.991961 2.003863 1.417813
-2.000383 1.973499 1.370238
-1.983261 2.019231 1.421441
-1.956849 2.045367 1.433453
-1.976872 2.041965 1.378738
-1.980711 2.001837 1.378754
-1.987352 1.999653 1.341911
-1.983493 2.039152 1.330732
-2.06145 2.008372 1.517097
-2.073129 2.040325 1.509675
-2.064271 2.046946 1.4914
-2.029024 2.008695 1.513778
-2.019555 2.047652 1.491441
-1.983383 2.021771 1.510883
-1.988202 2.046509 1.462447
-1.960255 2.04695 1.462473
-2.413144 1.993482 2.416513
-2.655473 1.981721 2.275643
-2.400309 2.032115 2.387482
-2.503121 2.031957 2.324596
-2.413925 2.048343 2.323833
-2.32445 2.052206 2.234191
-2.431672 2.047491 2.180512
-2.34224 2.048902 2.180594
-2.306409 2.060324 1.929176
-2.201235 2.052777 1.988022
-2.234771 2.053484 1.965525
-2.265985 2.048984 1.938847
-2.199539 2.089974 1.936656
-2.186157 2.091193 1.954528
-2.252914 2.072642 1.910661
-2.202824 2.087781 1.8987
-2.109591 2.066362 1.803772
-2.270782 2.07433 1.856783
-2.30668 2.082741 1.838327
-2.277721 2.086536 1.897515
-2.217209 2.081657 1.838549
-2.32463 2.084473 1.874031
-2.136671 2.082653 1.789366
-2.127341 2.060562 1.750316
-2.091679 2.067126 1.767927
-2.181268 2.075697 1.767282
-2.10943 2.061326 1.714471
-2.091283 2.047115 1.679471
-2.055542 2.048687 1.697364
-2.145327 2.069737 1.696015
-2.07341 2.050375 1.643485
-2.041922 2.037405 1.671149
-2.059712 2.034101 1.617552
-2.019405 2.030249 1.626801
-2.109229 2.053794 1.625311
-2.19894 2.064906 1.714108
-2.216969 2.071629 1.74953
-2.01944 2.037692 1.536796
-1.947877 2.040791 1.482999
-2.270778 2.079277 1.766919
-2.180789 2.055642 1.589244
-2.275004 2.071526 1.630731
-2.236869 2.06816 1.560441
-2.162799 2.051414 1.55368
-2.360129 2.075347 1.722187
-2.288525 2.078424 1.623599
-2.306393 2.080112 1.56972
-2.304124 2.072767 1.660843
-2.324509 2.081933 1.784589
-2.342617 2.093647 1.81973
-2.302659 2.117203 1.737847
-2.311635 2.118069 1.755699
-2.351863 2.11693 1.746732
-2.336156 2.115415 1.715491
-2.360485 2.095335 1.765851
-2.414019 2.085512 1.784226
-2.35629 2.115475 1.72217
-2.378039 2.077057 1.713099
-2.34888 2.07332 1.683128
-2.360167 2.080316 1.677114
-2.396186 2.091267 1.748099
-2.41374 2.072989 1.695347
-2.342176 2.076088 1.641551
-2.360567 2.09538 1.855434
-2.416215 2.080445 1.82818
-2.431887 2.0872 1.730347
-2.382326 2.069958 1.632865
-2.360084 2.080272 1.587531
-2.328635 2.069798 1.615054
-2.328615 2.069169 1.603892
-2.449637 2.0814 1.676891
-2.413866 2.070582 1.874653
-2.521021 2.046035 2.090848
-2.413736 2.077936 1.605483
-2.449528 2.064019 1.857042
-2.503113 2.041851 2.144868
-2.467667 2.088124 1.712314
-2.450191 2.111393 1.764784
-2.48546 2.079873 1.748581
-2.42512 2.079108 1.806963
-2.467553 2.07569 1.8026
-2.460861 2.077536 1.78907
-2.503254 2.071622 1.784848
-2.538924 2.055165 1.946965
-2.521017 2.050982 2.000984
-2.556761 2.044463 2.072956
-2.5635 2.049137 2.024528
-2.592493 2.052785 1.875335
-2.574633 2.041203 2.108941
-2.646098 2.057847 1.713699
-2.556808 2.037065 2.252543
-2.645965 2.018183 2.253447
-2.628329 2.036417 2.216616
-2.681745 2.019107 2.235413
-2.924568 1.967522 2.099028
-2.66403 2.032349 2.198864
-2.610413 2.042127 2.090908
-2.842645 2.029392 1.929954
-2.913977 2.006371 2.07446
-2.956943 1.965626 2.07444
-2.735511 2.029205 2.163079
-2.860596 2.031124 1.965658
-2.896301 2.02211 2.03777
-2.9496 1.997312 2.056989
-2.985144 1.983262 2.0398
-3.124426 1.956684 1.962661
-2.932002 2.018042 2.020018
-3.074728 1.99678 1.949291
-3.117251 1.997432 1.972694
-2.896297 2.027056 1.947906
-3.092599 1.995994 1.940345
-3.111097 2.03514 1.929146
-3.122266 2.034649 1.923554
-3.056974 2.007527 1.912883
-2.881586 2.028056 1.739591
-2.967739 2.021417 1.912261
-3.092793 2.010946 1.894709
-3.146759 2.028577 1.911534
-3.146598 2.023541 1.822234
-3.074921 2.014206 1.858723
-3.110622 2.010138 1.840971
-3.128294 1.999347 1.787797
-2.985367 2.013077 1.769363
-3.092632 2.00591 1.805408
-3.057009 2.014969 1.822878
-3.110343 1.997615 1.752093
-3.164073 2.000271 1.769763
-2.985438 2.027963 1.589354
-3.003031 2.01218 1.536461
-2.896085 2.034366 1.589154
-2.878217 2.032678 1.643032
-3.145455 1.956112 1.736453
-3.196213 1.9834 1.746021
-3.176612 1.944776 1.766151
-3.037554 1.933241 1.522933
-3.127818 1.974345 1.699623
-3.029247 1.973565 1.525153
-2.907411 1.920684 1.264079
-2.989607 2.013377 1.509542
-2.971556 2.008497 1.418025
-2.949654 2.031986 1.517523
-2.885641 1.959709 1.239522
-2.828927 1.91468 1.135781
-2.7623 1.950004 1.033126
-2.949493 2.02695 1.428222
-2.895641 2.021754 1.32111
-2.842551 2.044188 1.570779
-2.860254 2.045787 1.337736
-2.85966 2.013298 1.249984
-2.82372 2.007338 1.178717
-2.824313 2.039827 1.266469
-2.824682 2.042501 1.624658
-2.771148 2.052324 1.606283
-2.766334 2.046766 1.328892
-2.68139 2.04861 1.337899
-2.806975 2.045849 1.767837
-2.753241 2.04814 1.660303
-2.842834 2.051765 1.749522
-2.824651 2.030111 1.804527
-2.800169 2.035261 1.844594
-2.7175 2.049712 1.678195
-2.681874 2.063718 1.605802
-2.623533 2.058089 1.489764
-2.556898 2.07918 1.623072
-2.681512 2.051151 1.427341
-2.592198 2.06005 1.427
-2.503403 2.091499 1.604557
-2.610106 2.064233 1.372981
-2.467388 2.075601 1.623435
-2.449516 2.07886 1.58745
-2.520835 2.07068 1.462363
-2.574483 2.073292 1.390451
-2.672415 2.047745 1.320047
-2.503242 2.086463 1.515256
-2.467619 2.095522 1.532727
-2.431525 2.074632 1.551887
-2.708155 2.046173 1.302154
-2.699298 2.052794 1.28388
-2.485055 2.069757 1.480397
-2.503081 2.081427 1.425955
-2.449433 2.078815 1.497867
-2.413498 2.065435 1.561396
-2.377874 2.076968 1.533935
-2.735156 2.058709 1.265565
-2.806401 2.040591 1.230624
-2.717127 2.051986 1.230142
-2.467144 2.07052 1.444552
-2.413653 2.077892 1.515901
-2.4316 2.084571 1.461741
-2.645485 2.050093 1.176627
-2.395977 2.09363 1.479211
-2.681182 2.050973 1.069011
-2.591907 2.062367 1.06853
-2.75925 2.0351 1.120157
-2.751642 1.98294 1.036887
-2.712099 2.029609 1.00969
-2.715779 1.981972 0.9653378
-2.724165 1.946639 0.962836
-2.691915 2.027976 0.9751045
-2.645398 2.054996 0.9971808
-2.502476 2.063779 1.068611
-2.591911 2.05742 1.158394
-2.573965 2.050741 1.212554
-2.556611 2.076551 1.354466
-2.520949 2.083115 1.372077
-2.485051 2.074703 1.390533
-2.502723 2.063912 1.337358
-2.520513 2.060609 1.283762
-2.520195 2.04559 1.195024
-2.502519 2.061328 1.158334
-2.449311 2.076275 1.408426
-2.467376 2.090441 1.353843
-2.484454 2.047162 1.212917
-2.484733 2.059685 1.301795
-2.430964 2.054533 1.284266
-2.448788 2.058672 1.140664
-2.430916 2.061931 1.104679
-2.377791 2.076923 1.444352
-2.449032 2.063752 1.319547
-2.395581 2.073619 1.390755
-2.466818 2.065395 1.176086
-2.430999 2.061976 1.194261
-2.377425 2.069303 1.176027
-2.359435 2.065075 1.140464
-2.32386 2.066736 1.337522
-2.341449 2.0559 1.194765
-2.269851 2.051557 1.230973
-2.377312 2.056869 1.266314
-2.323777 2.066691 1.247939
-2.270051 2.059088 1.320133
-2.289674 2.095869 1.356097
-2.306031 2.067544 1.391259
-2.36008 2.085219 1.497667
-2.342133 2.07854 1.551827
-2.324025 2.066825 1.516687
-2.291118 2.106049 1.53693
-2.28663 2.105616 1.528004
-2.252425 2.064955 1.507963
-2.274762 2.063972 1.49678
-2.270134 2.059133 1.409716
-2.234197 2.048226 1.428312
-2.144809 2.047187 1.518117
-2.198295 2.044762 1.356904
-2.239842 2.05621 1.349465
-2.180223 2.04049 1.231759
-2.261958 2.048303 1.215493
-2.144443 2.039566 1.249792
-2.180466 2.04557 1.410642
-2.054937 2.031039 1.34002
-2.001324 2.035871 1.321927
-2.073328 2.05033 1.553903
-2.055259 2.041111 1.518621
-2.12674 2.037967 1.482836
-2.001368 2.033419 1.41165
-1.894221 2.048073 1.375183
-2.05498 2.028588 1.429743
-2.090838 2.034503 1.411428
-2.073128 2.042799 1.464743
-2.117528 2.023364 1.443363
-0.03203652 2.031381 2.424269
-0.06154682 2.060053 2.408041
-0.007384419 2.029944 2.39192
-0.04367458 2.063312 2.372056
-0.1867148 2.062016 2.300203
-0.3119654 2.064024 2.281947
0.01048782 2.033204 2.355934
0.09992754 2.044509 2.176288
0.1137229 2.020141 2.184406
0.1361412 2.018606 2.150938
0.04607927 2.054652 2.193536
-0.02211434 2.056175 2.150774
0.06383371 2.065399 2.157128
-0.2762602 2.073039 2.209835
-0.2404372 2.074566 2.138145
-0.3297943 2.063216 2.228209
-0.597928 2.053945 2.138663
0.1177998 2.047769 2.140302
0.09530494 2.056769 2.128556
0.2634021 2.046511 1.899876
0.2706914 2.008133 1.927809
0.242984 2.065593 1.888685
0.2880542 2.045074 1.867527
0.2794705 2.019746 1.909253
0.4478445 1.994492 1.636626
0.4360473 2.033932 1.628782
0.4702629 1.992956 1.603159
0.440085 2.064055 1.584537
0.4222913 2.055804 1.620805
0.5840798 2.020295 1.390178
0.6115547 1.98152 1.361059
0.6086926 2.021353 1.357688
0.7080098 1.973154 1.185894
0.6692463 2.016452 1.253931
0.7595277 1.971007 1.133477
0.6016379 2.04352 1.353065
0.7448886 2.049652 1.111098
0.7320337 2.011648 1.151292
0.7633871 2.010506 1.122298
0.7730311 1.968449 1.084373
0.7791041 2.008676 1.085475
0.7954292 1.967543 1.062069
0.7847037 2.008449 1.079899
0.8201015 1.965476 1.018557
0.5296818 2.065378 1.405454
0.5654262 2.071897 1.333483
0.5027949 2.06548 1.459151
0.5297644 2.065333 1.315872
0.4087145 2.069537 1.557296
0.3861974 2.076694 1.601644
0.357106 2.074517 1.659945
0.6012886 2.070928 1.261934
0.5475973 2.071089 1.279745
0.3684904 2.073345 1.458465
0.5142457 2.057158 1.308466
0.3997592 2.069774 1.563985
0.3146381 2.078542 1.565577
0.7446551 2.067099 1.065321
0.3147992 2.073506 1.476276
0.3507773 2.062577 1.450082
0.2788191 2.081961 1.547403
0.2258781 2.039649 1.478025
0.2967658 2.075282 1.601563
0.2609469 2.078702 1.583388
0.7897253 2.046581 1.044163
0.8284083 2.005801 1.020777
0.2965654 2.082814 1.690723
0.2250765 2.069776 1.834665
0.2071257 2.071508 1.870369
0.8353865 1.991099 0.9801857
0.8167289 2.037754 1.013355
0.7983896 2.069391 0.9577869
0.8531802 1.99935 0.9439185
0.8426003 1.961423 0.9404392
0.8672323 1.960615 0.9192526
0.848025 2.04221 0.9504507
0.8777931 2.000408 0.9114286
0.9097748 1.959334 0.8846874
0.9434425 1.955772 0.8121611
0.8703849 2.045037 0.9055391
0.9361129 1.995409 0.8065532
0.9502245 1.953549 0.7708656
0.9518299 1.993578 0.7697309
1.095984 1.942309 0.5310023
0.9241587 2.044832 0.7981455
0.8881041 2.063226 0.7791262
1.063293 2.025832 0.600141
0.942031 2.048091 0.7621598
1.094727 2.022172 0.5264964
1.109467 1.94038 0.4930618
0.9060156 2.06399 0.7432814
0.9776183 2.064593 0.6896254
1.111073 1.98041 0.4919271
1.138667 1.936621 0.4182989
1.171626 1.975508 0.38817
1.185738 1.933648 0.3524824
1.123927 2.018413 0.4517335
1.076229 2.061317 0.515297
0.9955339 2.070304 0.5639165
1.031357 2.071831 0.4922269
0.8344955 2.063342 0.7073549
1.087478 2.059291 0.4762381
1.170998 2.01544 0.385917
1.187313 1.974622 0.3680916
1.194162 1.966486 0.355125
1.156967 2.054782 0.3769542
1.165983 2.052657 0.336777
1.085131 2.071627 0.3848333
0.9957383 2.067719 0.3848925
1.067502 2.063287 0.2419357
0.9420038 2.065428 0.4924269
0.9597976 2.073679 0.4561597
0.924179 2.069567 0.3488252
0.9060237 2.073884 0.5635532
0.7806906 2.075936 0.6348796
0.7807651 2.065998 0.7250252
0.9241356 2.067116 0.4385484
0.8165055 2.067569 0.7429181
0.7447024 2.074498 0.885734
0.6908109 2.082189 0.9927052
0.7021408 2.077645 0.9089959
0.7265512 2.083761 1.010598
0.7086397 2.082998 1.046443
0.6371549 2.074907 1.100521
0.6729386 2.07893 1.028691
0.5655874 2.066861 1.244182
0.5120573 2.061985 1.172692
0.6372767 2.072367 1.01108
0.6551097 2.078122 0.9749532
0.6729819 2.081381 0.9389676
0.5299255 2.060297 1.226571
0.6016148 2.065803 0.9934684
0.7091624 2.065394 0.7786812
0.5120925 2.054542 1.262697
0.4044001 2.079775 1.207329
0.6182081 2.079154 0.9591511
0.5661533 2.051708 0.8866972
0.6195697 2.069018 0.8679004
0.6552356 2.080528 0.7956475
0.6309017 2.066947 0.7392591
0.4580912 2.079615 1.189518
0.5659137 2.061736 0.9757164
0.5300555 2.067651 0.9574012
0.5841474 2.052428 0.76127
0.4764468 2.067767 0.8856299
0.4223941 2.080495 1.081902
0.5664363 2.044132 0.7079548
0.6377641 2.062206 0.6533132
0.4584961 2.069499 0.9213339
0.5664011 2.051575 0.61795
0.7271565 2.066113 0.653254
0.4229167 2.062891 0.8141403
0.5484936 2.055758 0.5639307
0.5260552 2.057923 0.6085607
0.2615954 2.063505 1.136321
0.3870545 2.063859 0.8856891
0.1905627 2.052696 0.7426281
0.2258943 2.059438 1.118569
0.2436839 2.062741 1.172166
0.3687774 2.070716 1.189859
0.315047 2.073372 1.207529
0.369426 2.05552 0.7427914
0.3156129 2.05822 0.8500442
0.3864493 2.081507 1.243033
0.2441321 2.055076 0.8142586
0.2255328 2.072005 1.29703
0.3328366 2.076676 1.261126
0.4192951 2.053455 1.26931
0.3507048 2.074989 1.315004
0.3148073 2.0834 1.296548
0.2970136 2.075149 1.332816
0.1717982 2.069714 1.404564
0.4752302 2.053079 1.247036
0.458794 2.029745 1.281917
0.4942988 2.046291 1.298965
0.4828117 2.060819 1.382111
0.476191 2.058006 1.334105
0.3733567 2.056005 1.327314
0.3286006 2.056558 1.349598
0.4049065 2.042384 1.299024
0.4408039 2.033973 1.31748
0.4231281 2.018235 1.354169
0.3873876 2.016663 1.336277
0.4047453 2.04742 1.388324
0.3336964 2.016823 1.354088
0.3511327 2.042589 1.406417
0.2975593 2.035262 1.424651
0.3067703 2.019421 1.407644
0.3001092 2.017868 1.381964
0.2439859 2.027935 1.442885
0.1897842 2.060539 1.458865
0.2591824 2.058864 1.409813
0.2076172 2.066294 1.422739
0.1181463 2.067379 1.422516
0.1360145 2.065691 1.476395
0.1719905 2.052288 1.495132
